0.4541,0.36426,0.38184,0.44434,0.479,0.50391,0.50781,0.42969,0.5166,0.5459,0.53418,0.55469,0.51562,0.55273,0.50391,0.5625,0.55713,0.48682,0.4541,0.49707,0.49854,0.49316,0.53125,0.49609,0.55176,0.57275,0.58105,0.58789,0.55713,0.55762,0.58496,0.5625,0.57812,0.55518,0.57812,0.53223,0.57715,0.52441,0.51074,0.5332,0.57617,0.56348,0.55957,0.56494,0.59131,0.51074,0.55078,0.50098,0.51807,0.58154,0.54297,0.53418,0.58936,0.59375,0.51953,0.56641,0.55273,0.55371,0.53076,0.52344,0.49365,0.5,0.52686,0.49414,0.49609,0.4917,0.51855,0.48682,0.51074,0.4668,0.51367,0.53857,0.53613,0.47217,0.49463,0.45508,0.42285,0.44043,0.47412,0.4375,0.4668,0.46729,0.4541,0.44385,0.50098,0.43457,0.44678,0.47559,0.42041,0.46582,0.49609,0.50098,0.41553,0.4668,0.40771,0.48828,0.44775,0.37305,0.40381,0.37842,0.36865,0.42529,0.35107,0.40918,0.33398,0.42529,0.40625,0.42041,0.36572,0.29785,0.29541,0.24756,0.27637,0.2749,0.26807,0.27393,0.25195,0.30078,0.27197,0.29932,0.29102,0.34814,0.28662,0.25879,0.28271,0.29541,0.24512,0.24414,0.25732,0.29932,0.27686,0.27344,0.3125,0.2793,0.33496,0.29395,0.30127,0.27197,0.27197,0.28369,0.26416,0.2793,0.24951,0.31201,0.27246,0.28125,0.25391,0.26123,0.25635,0.30859,0.26855,0.34277,0.30127,0.2998,0.29688,0.30176,0.31396,0.31885,0.30811,0.26953,0.25732,0.29736,0.29395,0.25195,0.24707,0.27588,0.28223,0.31201,0.28564,0.24854,0.2373,0.22998,0.23779,0.23291,0.23145,0.25488,0.25098,0.27588,0.28027,0.30957,0.34814,0.31445,0.32568,0.30127,0.28662,0.34229,0.40283,0.38525,0.31201,0.35547,0.32764,0.30176,0.27588,0.2959,0.31543,0.28564,0.31885,0.27539,0.2959,0.24902,0.28027,0.26514,0.26855,0.26318,0.31152,0.29541,0.28174,0.29541,0.27441,0.27002,0.2793,0.28564,0.30762,0.27783,0.34277,0.29834,0.31396,0.26367,0.26758,0.26904,0.25684,0.24316,0.24658,0.3125,0.25342,0.24707,0.24951,0.29688,0.32031,0.3374,0.28711,0.28271,0.26709,0.25098,0.24072,0.24854,0.26904,0.25781,0.22998,0.22754,0.23096,0.25146,0.23438,0.24072,0.24219,0.2417,0.24268,0.25098,0.25195,0.23926,0.23291,0.23242,0.22607,0.22949,0.23779,0.23047,0.24561,0.2417,0.25635,0.24512,0.23682,0.23926,0.2334,0.23584,0.23438,0.25439,0.26123,0.28662,0.25195,0.25635,0.26172,0.23486,0.2417,0.25439,0.25537,0.25342,0.25,0.24121,0.24414,0.24414,0.27051,0.25098,0.24951,0.23975,0.23926,0.23047,0.2251,0.22461,0.229,0.22998,0.22461,0.22852,0.22607,0.23438,0.22949,0.24805,0.23145,0.23633,0.25879,0.25098,0.23828,0.23145,0.23242,0.22852,0.22852,0.22559,0.23682,0.22949,0.23291,0.22998,0.22656,0.22607,0.22852,0.23291,0.22852,0.23047,0.23047,0.23438,0.22656,0.22607,0.22559,0.22607,0.22656,0.22705,0.23047,0.22607,0.22998,0.22607,0.22754,0.22803,0.23047,0.23047,0.23047,0.23242,0.22607,0.22705,0.22656,0.23047,0.229,0.23242,0.22949,0.22607,0.22656,0.22559,0.22461,0.22217,0.22217,0.22412,0.21729,0.21191,0.22266,0.22363,0.22461,0.20459,0.19727,0.17871,0.21582,0.19531,0.17969,0.20898,0.22217,0.21924,0.22607,0.22607,0.22021,0.21826,0.22559,0.22363,0.22461,0.22266,0.22559,0.22461,0.22021,0.21777,0.22363,0.22314,0.2251,0.22754,0.2251
0.41406,0.40479,0.40527,0.39746,0.43164,0.4624,0.48828,0.47803,0.55273,0.55176,0.57275,0.56494,0.5249,0.55176,0.56641,0.56152,0.50195,0.50586,0.52051,0.48828,0.52051,0.48291,0.49365,0.53076,0.53711,0.53516,0.58789,0.59033,0.55371,0.55371,0.55713,0.57422,0.58154,0.55713,0.56055,0.54883,0.54395,0.57812,0.57129,0.55518,0.58398,0.5752,0.55957,0.58105,0.59033,0.55713,0.51074,0.54004,0.56934,0.53955,0.53711,0.53955,0.56055,0.57715,0.55615,0.56152,0.56396,0.49316,0.48926,0.47705,0.5498,0.54199,0.50293,0.46582,0.51758,0.51074,0.51318,0.53857,0.48779,0.52051,0.49023,0.5293,0.50537,0.47705,0.49414,0.4375,0.46826,0.45361,0.46924,0.51562,0.52051,0.47559,0.48438,0.46484,0.44189,0.50537,0.49463,0.44629,0.46924,0.47314,0.49414,0.47266,0.4375,0.42676,0.44434,0.41748,0.39941,0.42041,0.44043,0.40723,0.42383,0.4458,0.44531,0.36426,0.37402,0.4082,0.45361,0.39453,0.32617,0.30713,0.31592,0.26367,0.30811,0.30811,0.33057,0.30371,0.32764,0.28516,0.25537,0.26025,0.29199,0.27783,0.28467,0.271,0.24316,0.25439,0.24658,0.27393,0.26611,0.31641,0.30176,0.29736,0.27051,0.28857,0.28516,0.3501,0.34912,0.30322,0.32275,0.28418,0.28711,0.2749,0.25928,0.27832,0.2793,0.28271,0.27295,0.29443,0.28955,0.25635,0.26855,0.30762,0.32764,0.31787,0.27197,0.28271,0.31982,0.29395,0.2832,0.26074,0.26074,0.26953,0.24609,0.26074,0.25488,0.24756,0.271,0.29248,0.27002,0.28662,0.24121,0.23389,0.23193,0.24561,0.24561,0.23584,0.26416,0.29053,0.27441,0.32227,0.35986,0.31787,0.33057,0.28076,0.29932,0.37012,0.38525,0.3335,0.35498,0.36035,0.30762,0.31396,0.27783,0.30615,0.29785,0.30176,0.29688,0.2666,0.26611,0.25781,0.26807,0.25586,0.25928,0.28613,0.27881,0.28076,0.32324,0.28662,0.27393,0.24463,0.2915,0.30371,0.27979,0.27832,0.29492,0.35547,0.32275,0.29004,0.2915,0.29395,0.2583,0.25586,0.26025,0.30371,0.31934,0.26807,0.28174,0.31982,0.34961,0.29834,0.25342,0.24219,0.27197,0.25,0.25146,0.23926,0.24512,0.24365,0.22803,0.22754,0.22949,0.24072,0.26074,0.24365,0.23926,0.24072,0.23633,0.24463,0.23975,0.23828,0.22998,0.23193,0.22949,0.22754,0.22852,0.23975,0.24023,0.23486,0.23145,0.24414,0.23926,0.23486,0.24121,0.229,0.23291,0.24854,0.23633,0.25391,0.24365,0.24951,0.2583,0.24365,0.25732,0.23633,0.26514,0.26855,0.24658,0.24121,0.25049,0.25684,0.26367,0.25146,0.23096,0.229,0.22607,0.22607,0.22656,0.22607,0.22705,0.22607,0.22217,0.22412,0.22705,0.23242,0.24414,0.24365,0.25635,0.23779,0.24658,0.23193,0.22949,0.23047,0.23145,0.23096,0.22949,0.22852,0.22803,0.24072,0.23096,0.22607,0.2251,0.22607,0.23535,0.23486,0.22607,0.22656,0.23438,0.24365,0.24609,0.22949,0.23535,0.22754,0.22607,0.22803,0.22559,0.22607,0.2251,0.22754,0.22949,0.2373,0.23389,0.23438,0.229,0.23877,0.22949,0.22803,0.22656,0.22656,0.22607,0.23486,0.22754,0.2251,0.2251,0.21973,0.22168,0.22363,0.22461,0.21924,0.22412,0.21533,0.22314,0.22461,0.21875,0.21338,0.21338,0.19238,0.19727,0.21484,0.18457,0.18262,0.21582,0.2207,0.2168,0.22461,0.22314,0.22168,0.22168,0.22607,0.22119,0.22168,0.22412,0.22559,0.21436,0.21289,0.22363,0.22461,0.22705,0.22607,0.22461
0.4375,0.46338,0.45898,0.4375,0.4585,0.5,0.49072,0.50098,0.53076,0.54736,0.57617,0.58887,0.52832,0.53516,0.52441,0.53076,0.55957,0.51318,0.54639,0.49414,0.52637,0.49072,0.50586,0.5332,0.51953,0.57227,0.58691,0.58008,0.53223,0.57275,0.54395,0.57031,0.56152,0.54883,0.56055,0.54883,0.56738,0.5791,0.58301,0.54883,0.53613,0.55957,0.55713,0.59277,0.59668,0.56641,0.55176,0.56494,0.54199,0.53125,0.5752,0.5625,0.56934,0.55078,0.54834,0.57812,0.52051,0.50537,0.47705,0.47949,0.52686,0.52344,0.53613,0.47266,0.50537,0.52441,0.47461,0.54883,0.47656,0.52441,0.5166,0.48486,0.48047,0.46338,0.41406,0.4502,0.43555,0.43359,0.49023,0.49561,0.45361,0.4668,0.4375,0.43359,0.46338,0.46826,0.4668,0.4668,0.45361,0.4707,0.48779,0.48535,0.47412,0.4541,0.46436,0.36133,0.4541,0.41602,0.45264,0.46826,0.44922,0.45508,0.41748,0.40039,0.35449,0.36865,0.41406,0.40137,0.30859,0.30322,0.26074,0.26367,0.30273,0.34229,0.34229,0.28955,0.26074,0.24707,0.24951,0.25293,0.28076,0.24463,0.28564,0.25537,0.26611,0.25391,0.30078,0.29492,0.28027,0.33936,0.32764,0.29346,0.27637,0.29492,0.27881,0.35889,0.28076,0.3125,0.26758,0.2666,0.29736,0.30371,0.29541,0.26807,0.33105,0.28223,0.30566,0.28857,0.28418,0.26172,0.28223,0.31641,0.27441,0.27148,0.2998,0.26025,0.29004,0.29736,0.29297,0.25391,0.27539,0.24072,0.27783,0.28711,0.28906,0.27002,0.25244,0.28564,0.28906,0.26025,0.24365,0.23828,0.23975,0.23779,0.23291,0.2334,0.26025,0.27295,0.2793,0.33154,0.35986,0.33252,0.28564,0.2998,0.31787,0.3457,0.36621,0.32568,0.29785,0.37109,0.3208,0.36084,0.31934,0.35938,0.29541,0.33301,0.30908,0.271,0.29346,0.28467,0.29443,0.24463,0.24951,0.30322,0.29102,0.24854,0.29346,0.29297,0.2749,0.2583,0.27588,0.28516,0.27783,0.26123,0.28076,0.31934,0.27734,0.26123,0.28809,0.27979,0.25537,0.24951,0.31787,0.34766,0.31592,0.2915,0.2998,0.33203,0.30225,0.27393,0.29541,0.23926,0.26074,0.23486,0.25049,0.23584,0.22852,0.25195,0.22803,0.22656,0.22949,0.22998,0.23438,0.25244,0.24609,0.22998,0.24365,0.2334,0.23438,0.22754,0.22705,0.22705,0.2334,0.23242,0.22803,0.22803,0.23389,0.23633,0.23389,0.23535,0.24219,0.24756,0.23828,0.22754,0.23877,0.23486,0.24658,0.24512,0.23633,0.25342,0.23047,0.23193,0.24219,0.22949,0.27197,0.25928,0.2417,0.24365,0.27783,0.23877,0.2373,0.23682,0.24414,0.23682,0.22754,0.22803,0.23145,0.22656,0.22852,0.22607,0.22656,0.22363,0.22705,0.22754,0.23242,0.25146,0.24365,0.23486,0.23926,0.23633,0.23584,0.22705,0.22656,0.22656,0.22754,0.23438,0.22949,0.23145,0.22656,0.22949,0.22607,0.22754,0.22705,0.22656,0.22656,0.23535,0.229,0.26172,0.23242,0.22949,0.24365,0.22852,0.23047,0.22656,0.22705,0.22559,0.22559,0.22607,0.23535,0.22998,0.22852,0.22754,0.229,0.23926,0.23486,0.22705,0.23096,0.22803,0.22607,0.23096,0.22949,0.22363,0.22412,0.22607,0.22412,0.22363,0.21533,0.21973,0.22266,0.2168,0.22266,0.22412,0.22363,0.22021,0.20361,0.18896,0.20068,0.21436,0.17871,0.15869,0.19287,0.2168,0.20605,0.21875,0.21582,0.21484,0.22559,0.22461,0.22461,0.21338,0.22021,0.22461,0.2124,0.22119,0.21631,0.22168,0.22559,0.22461,0.22412
0.45898,0.4502,0.49023,0.45605,0.47217,0.51074,0.51758,0.49609,0.48145,0.54395,0.53857,0.55957,0.5459,0.56396,0.5918,0.56055,0.53516,0.50977,0.51074,0.5498,0.53955,0.5498,0.53418,0.55518,0.5376,0.56348,0.55713,0.53711,0.5625,0.57275,0.59131,0.56641,0.51953,0.5376,0.56396,0.58789,0.59375,0.54736,0.53076,0.5459,0.57617,0.55762,0.5625,0.56934,0.58008,0.59668,0.58301,0.58301,0.57617,0.57715,0.54004,0.56494,0.54639,0.56543,0.58691,0.5459,0.49756,0.48193,0.43555,0.47949,0.44287,0.49414,0.54199,0.51074,0.45508,0.47217,0.50879,0.48828,0.49707,0.44922,0.49854,0.46973,0.4541,0.48145,0.46826,0.42725,0.46094,0.44873,0.45605,0.51465,0.479,0.48682,0.48682,0.49023,0.45361,0.48145,0.43408,0.4707,0.45215,0.50781,0.52051,0.43652,0.42383,0.43359,0.41504,0.38965,0.43066,0.39453,0.40674,0.44678,0.46973,0.42871,0.49219,0.45361,0.38525,0.38672,0.33398,0.33887,0.32129,0.2959,0.30322,0.2876,0.27393,0.32031,0.3042,0.29688,0.27148,0.25244,0.2749,0.25146,0.26221,0.24854,0.24951,0.25635,0.25195,0.28711,0.33154,0.2998,0.29932,0.32471,0.2915,0.29102,0.30078,0.28271,0.30957,0.30664,0.32959,0.29834,0.31689,0.31348,0.32568,0.33838,0.33398,0.31592,0.33838,0.30713,0.27441,0.28125,0.2915,0.26416,0.25684,0.27051,0.26123,0.25391,0.24902,0.27686,0.2583,0.2666,0.27295,0.25,0.25488,0.23877,0.24561,0.26611,0.29541,0.28662,0.25879,0.27783,0.28223,0.24463,0.26514,0.24707,0.26611,0.24854,0.23584,0.25439,0.25293,0.25146,0.2583,0.30811,0.31543,0.31934,0.27002,0.27686,0.26855,0.29395,0.35693,0.3335,0.34619,0.3291,0.36865,0.32666,0.36768,0.35303,0.3877,0.32568,0.28223,0.2998,0.28516,0.30371,0.26025,0.25635,0.28613,0.26416,0.24805,0.26123,0.25635,0.26123,0.2959,0.28662,0.29492,0.27295,0.2998,0.28662,0.30469,0.31787,0.2666,0.28223,0.2998,0.28564,0.29053,0.29102,0.31348,0.31006,0.29541,0.34033,0.28857,0.31445,0.30127,0.2915,0.29297,0.23975,0.26953,0.24951,0.23047,0.23145,0.23779,0.23389,0.23535,0.22656,0.2251,0.22607,0.22607,0.23096,0.22998,0.22754,0.22998,0.22949,0.22656,0.22754,0.23438,0.22852,0.23584,0.229,0.22705,0.22705,0.229,0.23145,0.22803,0.23486,0.23486,0.24463,0.23486,0.22949,0.23535,0.22852,0.23291,0.23584,0.2334,0.23193,0.23193,0.24072,0.23926,0.24268,0.2334,0.25635,0.25537,0.27344,0.24609,0.23779,0.23145,0.24805,0.22949,0.22998,0.23193,0.23096,0.22949,0.22803,0.22559,0.22607,0.22461,0.22607,0.22754,0.22559,0.23389,0.23438,0.23096,0.23291,0.23682,0.2373,0.23291,0.22852,0.23047,0.22607,0.23047,0.22803,0.23145,0.23047,0.22998,0.22705,0.22754,0.22754,0.22607,0.22803,0.23242,0.23096,0.24561,0.25146,0.26514,0.24268,0.24805,0.25391,0.24316,0.23389,0.23486,0.22705,0.22998,0.22656,0.22461,0.22607,0.22607,0.229,0.23291,0.2373,0.24854,0.23877,0.24707,0.22998,0.22852,0.22754,0.22656,0.22607,0.22607,0.22559,0.22607,0.22559,0.22217,0.21338,0.2085,0.21875,0.22412,0.22412,0.21045,0.21143,0.19727,0.21338,0.19287,0.20459,0.21143,0.20215,0.21045,0.20264,0.21338,0.20996,0.21875,0.22217,0.2251,0.22461,0.2251,0.22363,0.22363,0.22217,0.22314,0.21533,0.22021,0.21582,0.21191,0.2168,0.22119
0.48926,0.42676,0.48926,0.47314,0.48486,0.46338,0.52197,0.49707,0.49951,0.5332,0.58301,0.59277,0.58594,0.56836,0.5376,0.58252,0.5332,0.48926,0.51465,0.54004,0.57373,0.52734,0.52686,0.54736,0.57715,0.57227,0.51758,0.55176,0.54395,0.53516,0.58594,0.57617,0.56543,0.55078,0.54883,0.60352,0.60156,0.5918,0.60889,0.5791,0.56934,0.5957,0.55762,0.54004,0.55957,0.60547,0.58594,0.56055,0.55762,0.59131,0.59033,0.56348,0.56348,0.54395,0.54395,0.55762,0.50488,0.49414,0.44385,0.41602,0.44531,0.51465,0.50879,0.50781,0.46191,0.47656,0.52979,0.46924,0.4707,0.4585,0.51221,0.51318,0.45459,0.45508,0.48779,0.50781,0.41797,0.44629,0.52051,0.51318,0.54297,0.51953,0.45996,0.45508,0.47803,0.44043,0.47266,0.50391,0.44336,0.49609,0.49609,0.42041,0.41699,0.46777,0.38965,0.39258,0.38281,0.38623,0.42236,0.43311,0.48486,0.37549,0.40576,0.43213,0.44531,0.34082,0.36426,0.32178,0.29395,0.2998,0.28955,0.3208,0.28418,0.32178,0.2832,0.35693,0.33398,0.28076,0.25439,0.24805,0.24365,0.25098,0.24902,0.24951,0.26465,0.27783,0.31104,0.33984,0.2876,0.27881,0.33496,0.3252,0.32324,0.30908,0.27393,0.31836,0.28369,0.32471,0.32275,0.29541,0.32324,0.354,0.29248,0.29199,0.32959,0.28516,0.29346,0.25684,0.29785,0.28857,0.27588,0.2832,0.25244,0.25342,0.24951,0.27979,0.2998,0.26562,0.25781,0.24219,0.23438,0.22949,0.25098,0.23633,0.25195,0.28467,0.29932,0.28125,0.28125,0.25439,0.24658,0.28662,0.2666,0.27344,0.27783,0.25781,0.25439,0.24365,0.24805,0.27393,0.28955,0.30225,0.27441,0.30713,0.26758,0.26709,0.28955,0.31494,0.35986,0.39404,0.36865,0.31885,0.32764,0.39502,0.34277,0.28955,0.32617,0.28223,0.31152,0.34229,0.29297,0.30322,0.29102,0.27783,0.25244,0.27197,0.29053,0.27637,0.27393,0.28662,0.25537,0.28027,0.24805,0.27588,0.2832,0.32959,0.27979,0.25537,0.28418,0.33838,0.271,0.27832,0.26514,0.35938,0.36279,0.3667,0.30127,0.37695,0.32178,0.26611,0.29102,0.23291,0.27197,0.28223,0.23096,0.22705,0.24805,0.23535,0.23291,0.23584,0.23096,0.22607,0.23486,0.23047,0.23047,0.23047,0.22607,0.2251,0.22656,0.229,0.2373,0.23877,0.23047,0.22949,0.23096,0.22607,0.22607,0.23145,0.23486,0.23145,0.23193,0.23535,0.22998,0.2334,0.23584,0.22754,0.24121,0.23145,0.23096,0.23779,0.2417,0.229,0.24023,0.25049,0.23828,0.24268,0.24072,0.2666,0.25439,0.23389,0.22998,0.24805,0.22754,0.23145,0.22998,0.23047,0.22803,0.22705,0.22559,0.2251,0.22656,0.22461,0.22559,0.22803,0.22607,0.22852,0.24121,0.23584,0.23779,0.23047,0.23242,0.22949,0.23047,0.23438,0.23145,0.23389,0.23438,0.23779,0.22607,0.23096,0.22754,0.22705,0.23779,0.24365,0.23682,0.229,0.22754,0.22754,0.22998,0.2417,0.23047,0.26758,0.23047,0.23047,0.22949,0.23145,0.22852,0.2251,0.23145,0.229,0.22998,0.23389,0.23242,0.23047,0.23145,0.25439,0.23096,0.22998,0.22705,0.23096,0.22998,0.22461,0.22559,0.22803,0.22607,0.22607,0.20898,0.2002,0.22363,0.21338,0.21826,0.22412,0.22559,0.22363,0.22461,0.22412,0.21826,0.17334,0.17627,0.16064,0.21826,0.20898,0.22217,0.22314,0.22363,0.22559,0.2207,0.22559,0.22168,0.22168,0.21924,0.21533,0.22168,0.22168,0.2251,0.21582,0.2251,0.21973,0.22412
0.4458,0.48682,0.43799,0.41553,0.44043,0.44873,0.49756,0.53418,0.53857,0.55518,0.56055,0.58301,0.55518,0.57617,0.58301,0.5459,0.521,0.50781,0.49316,0.50879,0.48486,0.54199,0.5293,0.5459,0.57129,0.54834,0.54883,0.57031,0.55078,0.56738,0.56738,0.54834,0.58936,0.58789,0.60693,0.58301,0.57373,0.6123,0.60791,0.6001,0.57373,0.60156,0.58594,0.53711,0.58398,0.57227,0.55859,0.58301,0.57031,0.54199,0.57031,0.56738,0.57227,0.55469,0.57422,0.57129,0.51807,0.51758,0.48193,0.42627,0.45117,0.53613,0.54639,0.48193,0.52344,0.55273,0.57129,0.5293,0.47705,0.49365,0.51758,0.50342,0.44678,0.44238,0.50781,0.51221,0.5,0.45508,0.53223,0.52539,0.48047,0.48047,0.41211,0.40723,0.4165,0.42871,0.4541,0.48926,0.49463,0.49023,0.46826,0.48145,0.42236,0.41846,0.38525,0.43896,0.4624,0.46777,0.44385,0.48047,0.48779,0.41797,0.4917,0.46973,0.45703,0.37402,0.3335,0.30371,0.31299,0.37305,0.34912,0.35156,0.32959,0.2876,0.36084,0.35596,0.36768,0.32715,0.26709,0.24609,0.23926,0.24219,0.23486,0.2417,0.27588,0.27344,0.3125,0.33545,0.30664,0.28125,0.28223,0.33496,0.30664,0.29736,0.28467,0.3252,0.33105,0.30713,0.26709,0.27393,0.28125,0.31396,0.28809,0.30176,0.32422,0.29395,0.28711,0.28271,0.29736,0.28125,0.25732,0.27051,0.26611,0.24561,0.24268,0.27197,0.28418,0.2666,0.25635,0.23486,0.23047,0.23584,0.24023,0.23926,0.26074,0.25098,0.24512,0.26074,0.26367,0.2583,0.2749,0.27539,0.27344,0.28223,0.2666,0.24463,0.24121,0.25195,0.25049,0.28613,0.26025,0.26318,0.27588,0.29248,0.28125,0.28076,0.31592,0.33398,0.2998,0.36035,0.34717,0.40576,0.37109,0.3374,0.33887,0.32275,0.3252,0.34375,0.31152,0.32227,0.33496,0.3291,0.34912,0.29346,0.28564,0.28467,0.29785,0.26758,0.25879,0.26318,0.29541,0.271,0.25439,0.26367,0.32324,0.33887,0.2959,0.2666,0.30273,0.30225,0.3125,0.27441,0.32617,0.31934,0.34033,0.34473,0.30908,0.33643,0.29443,0.31104,0.28027,0.26123,0.27441,0.25439,0.24902,0.23584,0.22852,0.23145,0.22705,0.23291,0.24463,0.23584,0.22754,0.22949,0.23926,0.23926,0.23438,0.22559,0.22803,0.23096,0.23926,0.23242,0.24805,0.23633,0.23047,0.23291,0.23242,0.23145,0.23633,0.24365,0.23828,0.23486,0.23535,0.24902,0.23877,0.229,0.22705,0.23291,0.23877,0.25635,0.25195,0.23145,0.24756,0.25537,0.24609,0.24561,0.24756,0.24609,0.25439,0.23438,0.2334,0.23975,0.22656,0.22607,0.23486,0.2334,0.23096,0.22852,0.23242,0.22705,0.22803,0.2251,0.22607,0.22656,0.23584,0.23486,0.24023,0.22754,0.23242,0.23193,0.22607,0.22705,0.22754,0.22949,0.23242,0.23145,0.23047,0.23193,0.229,0.22852,0.23682,0.23486,0.23047,0.24268,0.22705,0.22754,0.22754,0.22656,0.22656,0.22998,0.23242,0.24268,0.24512,0.229,0.23047,0.22803,0.22998,0.22656,0.22949,0.23389,0.24463,0.24316,0.22998,0.229,0.229,0.24805,0.23584,0.23975,0.23975,0.23584,0.22949,0.22559,0.22607,0.22559,0.22363,0.22217,0.22021,0.21143,0.22412,0.22412,0.22461,0.22266,0.22217,0.22266,0.2251,0.22363,0.22266,0.18848,0.16113,0.18945,0.18018,0.21777,0.22119,0.21924,0.22266,0.22412,0.22559,0.22217,0.20801,0.21777,0.22021,0.22217,0.21338,0.22314,0.2251,0.22412,0.22314,0.22559,0.22266
0.49316,0.46729,0.4375,0.4707,0.43213,0.45703,0.48926,0.54736,0.52686,0.55713,0.59131,0.60449,0.57275,0.56494,0.57129,0.55176,0.51562,0.53076,0.5,0.5293,0.51221,0.58887,0.57275,0.5625,0.52344,0.55078,0.52197,0.56494,0.54297,0.56396,0.59912,0.58887,0.56934,0.59033,0.59473,0.62012,0.57031,0.5752,0.61914,0.61426,0.6123,0.55762,0.53613,0.51074,0.51562,0.521,0.57617,0.56055,0.5332,0.55518,0.54736,0.58594,0.56641,0.5293,0.54492,0.55469,0.55615,0.53125,0.44434,0.46777,0.44873,0.49414,0.55078,0.51855,0.56152,0.56055,0.51221,0.47705,0.50098,0.52441,0.46582,0.47412,0.48438,0.47705,0.53857,0.55518,0.50098,0.43115,0.52637,0.49463,0.5,0.46338,0.46436,0.41211,0.4502,0.45459,0.43555,0.44531,0.48145,0.44189,0.4624,0.49609,0.45459,0.43457,0.44873,0.46924,0.44922,0.44873,0.47461,0.50928,0.48486,0.46729,0.50098,0.44385,0.45703,0.39258,0.34082,0.35938,0.30811,0.32568,0.34375,0.31348,0.36475,0.33643,0.31787,0.35449,0.37207,0.32373,0.28613,0.24463,0.24609,0.26758,0.25195,0.24512,0.26758,0.24805,0.27002,0.31055,0.33594,0.29004,0.3374,0.30273,0.34229,0.2627,0.32129,0.28125,0.28125,0.2915,0.25781,0.28613,0.25977,0.3252,0.31006,0.31641,0.26074,0.25049,0.25195,0.26465,0.28564,0.28467,0.25391,0.28857,0.27539,0.25244,0.27148,0.25635,0.26318,0.25,0.25635,0.23535,0.25439,0.24658,0.23926,0.23926,0.23633,0.25439,0.23877,0.27881,0.27979,0.25635,0.27197,0.26514,0.27197,0.28418,0.29346,0.27148,0.26221,0.23926,0.27441,0.28467,0.30957,0.29639,0.31348,0.31787,0.28271,0.28955,0.35693,0.31348,0.28418,0.36621,0.33154,0.42871,0.40625,0.37256,0.31152,0.33545,0.2915,0.30469,0.31006,0.39209,0.354,0.34521,0.35254,0.36523,0.29199,0.26758,0.30176,0.26855,0.31006,0.3208,0.25732,0.28271,0.28809,0.29346,0.29395,0.32031,0.31006,0.25586,0.26416,0.27734,0.30518,0.27441,0.34424,0.34424,0.28564,0.3042,0.34521,0.29639,0.29736,0.30566,0.30908,0.24951,0.26807,0.27832,0.25928,0.24854,0.24902,0.23926,0.23633,0.24023,0.24219,0.23145,0.24316,0.23633,0.24365,0.23486,0.22754,0.22656,0.22754,0.23828,0.22803,0.22607,0.23975,0.24951,0.22754,0.24463,0.24316,0.23486,0.22754,0.23877,0.24561,0.25098,0.25439,0.25879,0.25342,0.22754,0.23633,0.25,0.25195,0.25488,0.25195,0.23438,0.22998,0.24854,0.23877,0.23486,0.23926,0.23145,0.25293,0.24414,0.23047,0.24365,0.22607,0.22803,0.22607,0.22754,0.23828,0.23047,0.22705,0.22705,0.22607,0.2251,0.22607,0.21973,0.22559,0.23047,0.23779,0.23877,0.23193,0.24609,0.22656,0.23047,0.23291,0.22803,0.23975,0.22803,0.22607,0.22607,0.22656,0.22803,0.23486,0.23633,0.24072,0.24951,0.24658,0.2373,0.23486,0.2334,0.229,0.23047,0.22656,0.22852,0.22998,0.22705,0.22607,0.22607,0.22656,0.22559,0.22607,0.23535,0.24268,0.23438,0.23877,0.22656,0.23047,0.23584,0.24121,0.22998,0.22803,0.24121,0.22656,0.23047,0.22314,0.2251,0.21973,0.2251,0.21045,0.22217,0.22412,0.22607,0.2251,0.20898,0.22412,0.20215,0.22217,0.21338,0.19775,0.18604,0.21582,0.20605,0.2207,0.22217,0.21436,0.22119,0.22412,0.21582,0.21777,0.22461,0.22461,0.21777,0.21387,0.22168,0.22021,0.22607,0.22461,0.22461,0.22266,0.22607,0.22461
0.51807,0.50781,0.45996,0.45117,0.51367,0.50391,0.48145,0.50684,0.5293,0.54395,0.58105,0.58105,0.54492,0.51318,0.47559,0.5249,0.57031,0.56494,0.5376,0.54639,0.57617,0.59033,0.59033,0.56641,0.59473,0.5625,0.51074,0.53516,0.57129,0.57617,0.60449,0.58887,0.56738,0.59033,0.61523,0.61133,0.58936,0.58789,0.57617,0.59766,0.57373,0.55176,0.56543,0.55957,0.52686,0.521,0.53076,0.5166,0.56836,0.55859,0.59033,0.55371,0.56641,0.55176,0.56934,0.54004,0.51953,0.49316,0.4458,0.46191,0.45361,0.48486,0.48779,0.5459,0.52637,0.56055,0.55176,0.49609,0.51367,0.50928,0.46826,0.48047,0.49951,0.54004,0.54736,0.53076,0.49316,0.4834,0.47217,0.50928,0.45508,0.43848,0.44873,0.42529,0.38721,0.40918,0.43799,0.43604,0.4668,0.4585,0.49561,0.50098,0.49756,0.54102,0.51074,0.49609,0.52197,0.48193,0.52344,0.5332,0.53125,0.5166,0.50098,0.44531,0.42773,0.35547,0.3291,0.34814,0.35254,0.32666,0.35986,0.35156,0.30908,0.31104,0.34082,0.3291,0.29834,0.34619,0.2959,0.27979,0.28564,0.26514,0.24707,0.24805,0.25537,0.24463,0.25342,0.29492,0.28271,0.34033,0.37793,0.32959,0.31348,0.28174,0.27148,0.29492,0.2793,0.2627,0.24951,0.26514,0.28564,0.28711,0.3125,0.27393,0.25635,0.24854,0.28369,0.27686,0.27051,0.26953,0.27539,0.2627,0.26123,0.24561,0.23975,0.26025,0.27148,0.26855,0.26953,0.24854,0.25635,0.23926,0.24268,0.23682,0.25439,0.23975,0.24902,0.27832,0.25977,0.2627,0.26514,0.3042,0.2959,0.33643,0.27588,0.28467,0.25342,0.26465,0.27246,0.27197,0.28418,0.29297,0.29102,0.30713,0.2998,0.34277,0.33887,0.30127,0.28174,0.30811,0.37842,0.38135,0.31787,0.3374,0.34814,0.31787,0.29004,0.29932,0.36768,0.37158,0.34033,0.35986,0.40723,0.36865,0.3125,0.30127,0.27441,0.28223,0.2832,0.31592,0.27832,0.28027,0.3335,0.31592,0.28857,0.30176,0.2666,0.2627,0.25244,0.26074,0.30127,0.28906,0.33398,0.33398,0.30713,0.31787,0.35156,0.30811,0.31641,0.27197,0.30762,0.29297,0.28174,0.29395,0.31494,0.27002,0.28467,0.2832,0.26221,0.24023,0.25781,0.25195,0.27246,0.25195,0.23047,0.23096,0.2373,0.22852,0.22607,0.23047,0.22705,0.22803,0.23486,0.23486,0.2334,0.23096,0.23047,0.23047,0.23633,0.23242,0.22998,0.25342,0.24365,0.24414,0.23291,0.23193,0.22803,0.24219,0.25,0.24805,0.24951,0.24365,0.24561,0.23291,0.23926,0.22949,0.23438,0.22998,0.23877,0.23682,0.23193,0.23486,0.23096,0.22656,0.229,0.23047,0.23584,0.22998,0.22803,0.22607,0.21875,0.21826,0.22119,0.22021,0.22363,0.22656,0.22705,0.23633,0.2334,0.23535,0.22705,0.23047,0.22656,0.23193,0.22607,0.22705,0.229,0.22705,0.23096,0.23438,0.22754,0.23242,0.22852,0.23047,0.23926,0.2417,0.23584,0.229,0.22607,0.22607,0.22705,0.22998,0.23145,0.23047,0.229,0.22559,0.22852,0.22656,0.229,0.229,0.24268,0.24365,0.23389,0.22998,0.23193,0.23096,0.23242,0.229,0.23926,0.23242,0.23096,0.22754,0.22656,0.22461,0.22607,0.22314,0.22412,0.22314,0.22266,0.22119,0.20996,0.21338,0.21094,0.20508,0.22021,0.21777,0.22266,0.21631,0.21533,0.21143,0.20361,0.21045,0.21338,0.20654,0.22217,0.22119,0.22119,0.22314,0.22607,0.22363,0.2207,0.22461,0.22461,0.22607,0.22412,0.22607,0.22461,0.22461,0.22119
0.479,0.48486,0.45947,0.51367,0.479,0.52344,0.45996,0.48047,0.52637,0.55176,0.57031,0.54395,0.53711,0.54736,0.54736,0.53857,0.54004,0.56934,0.52246,0.5249,0.54492,0.59131,0.55371,0.57373,0.50684,0.51465,0.51465,0.56836,0.53076,0.55762,0.52637,0.56641,0.57275,0.62109,0.5918,0.59375,0.58887,0.58398,0.60889,0.56396,0.58936,0.55469,0.5293,0.5752,0.57129,0.56641,0.52539,0.57422,0.58594,0.57129,0.54199,0.521,0.53955,0.52637,0.56738,0.57812,0.49219,0.54395,0.53711,0.5293,0.52051,0.52344,0.52051,0.57422,0.52734,0.47461,0.48682,0.51953,0.53223,0.46436,0.47656,0.48926,0.5332,0.54639,0.51465,0.52051,0.50098,0.46484,0.4375,0.45264,0.45898,0.41895,0.44287,0.38965,0.3877,0.4043,0.45459,0.48535,0.42969,0.44043,0.49609,0.50586,0.52197,0.56738,0.56738,0.47461,0.49219,0.49951,0.48828,0.49561,0.51465,0.5166,0.43945,0.38916,0.40186,0.396,0.36914,0.38867,0.31494,0.34717,0.36035,0.30615,0.30371,0.28613,0.35254,0.29834,0.30127,0.30957,0.34229,0.27441,0.31104,0.29053,0.24609,0.26758,0.25293,0.26514,0.26123,0.28467,0.3418,0.32129,0.30176,0.3418,0.3252,0.30518,0.27295,0.32031,0.29541,0.26221,0.25635,0.27539,0.2666,0.27637,0.3125,0.26758,0.27783,0.2832,0.28125,0.27881,0.2627,0.2832,0.27393,0.27783,0.26221,0.26367,0.25,0.24951,0.25146,0.23926,0.27197,0.25928,0.24463,0.24805,0.25,0.23975,0.26025,0.26074,0.2627,0.24609,0.26367,0.25732,0.26953,0.35352,0.29053,0.30078,0.30957,0.28662,0.28174,0.28174,0.27344,0.31982,0.27783,0.32812,0.26855,0.2749,0.33838,0.33984,0.3374,0.30176,0.30371,0.31348,0.35547,0.33496,0.33838,0.32129,0.32129,0.34229,0.33154,0.33008,0.37402,0.41797,0.4248,0.39258,0.31641,0.33057,0.31641,0.31445,0.31299,0.31396,0.31348,0.34619,0.29492,0.32129,0.31738,0.35107,0.27783,0.2998,0.25195,0.24805,0.27783,0.29053,0.24658,0.26025,0.26953,0.33398,0.2998,0.38525,0.36133,0.31787,0.3252,0.27881,0.27783,0.31787,0.2876,0.24658,0.3208,0.31787,0.25635,0.2915,0.24805,0.23047,0.23535,0.26025,0.25537,0.24951,0.26074,0.23779,0.24463,0.22852,0.22607,0.22803,0.23242,0.22607,0.23975,0.23486,0.22949,0.24707,0.23584,0.23486,0.24463,0.22852,0.25049,0.2334,0.23291,0.23877,0.24756,0.24951,0.24707,0.23779,0.24463,0.23486,0.23535,0.24463,0.23047,0.24512,0.229,0.23926,0.22705,0.22998,0.23145,0.24121,0.23926,0.22803,0.23242,0.23438,0.22656,0.22998,0.22607,0.22656,0.22607,0.22607,0.22607,0.21973,0.22314,0.22363,0.22607,0.22461,0.22559,0.22705,0.23096,0.22998,0.22705,0.22656,0.229,0.23926,0.23682,0.23145,0.22607,0.22754,0.23584,0.23486,0.22705,0.22949,0.23047,0.23193,0.25586,0.25977,0.22998,0.229,0.22607,0.22607,0.23584,0.23242,0.23779,0.23584,0.22607,0.229,0.22607,0.22559,0.22803,0.23047,0.22852,0.23486,0.23242,0.22705,0.22754,0.23047,0.22607,0.22607,0.22803,0.23389,0.2334,0.22998,0.22607,0.2251,0.22168,0.22412,0.2251,0.22461,0.22217,0.22461,0.21777,0.21729,0.20459,0.21582,0.21729,0.2168,0.22119,0.20605,0.22021,0.22363,0.20312,0.21582,0.20166,0.21387,0.22217,0.22314,0.22412,0.22412,0.22607,0.22314,0.22607,0.2251,0.22705,0.22607,0.22607,0.22607,0.2251,0.22314,0.21729
0.47803,0.50488,0.47461,0.49756,0.51221,0.47412,0.43896,0.49219,0.55469,0.55762,0.5498,0.53516,0.55713,0.54004,0.50977,0.50537,0.54004,0.55957,0.57617,0.54395,0.53516,0.54004,0.51172,0.51221,0.55078,0.51953,0.54102,0.53955,0.49365,0.49365,0.5625,0.58008,0.61719,0.60547,0.6001,0.60645,0.62988,0.61426,0.61035,0.57812,0.58398,0.53076,0.52637,0.56055,0.59033,0.56641,0.58105,0.5625,0.5332,0.57031,0.55615,0.54297,0.50879,0.5293,0.56494,0.55762,0.52832,0.53711,0.5249,0.52441,0.5498,0.53857,0.54297,0.53223,0.47412,0.46777,0.46094,0.51367,0.52344,0.47119,0.51172,0.50537,0.49463,0.50098,0.45605,0.48779,0.51758,0.47607,0.45703,0.44238,0.4668,0.40283,0.3833,0.38037,0.40918,0.47656,0.49414,0.48047,0.46924,0.46338,0.5166,0.49219,0.5,0.55176,0.50098,0.51758,0.51465,0.5459,0.55713,0.52686,0.52832,0.4541,0.4375,0.40576,0.35596,0.3584,0.37012,0.3916,0.32959,0.32031,0.32568,0.29102,0.27197,0.3125,0.30811,0.34033,0.29932,0.28857,0.28955,0.31836,0.29395,0.27295,0.27832,0.271,0.27393,0.26367,0.27881,0.29199,0.28174,0.31299,0.35547,0.37012,0.36865,0.29541,0.33447,0.31592,0.2998,0.29834,0.31104,0.29834,0.29102,0.26514,0.28027,0.30957,0.31592,0.30615,0.32129,0.32178,0.29932,0.29395,0.3335,0.31104,0.28857,0.2583,0.29443,0.27832,0.26074,0.24121,0.23877,0.25586,0.25391,0.24951,0.24072,0.23389,0.25781,0.27295,0.27881,0.24609,0.27881,0.27295,0.27197,0.33838,0.32227,0.28125,0.29053,0.31348,0.27393,0.29492,0.35352,0.3335,0.36133,0.31006,0.27051,0.28955,0.32959,0.30811,0.34277,0.3252,0.39258,0.36523,0.32959,0.36572,0.3291,0.38232,0.31885,0.31348,0.32129,0.3833,0.37305,0.42725,0.40723,0.33447,0.33105,0.37695,0.33154,0.35986,0.36377,0.35449,0.35498,0.30371,0.32129,0.30566,0.3501,0.31494,0.28564,0.30664,0.28174,0.25195,0.2373,0.25439,0.27686,0.26855,0.28516,0.30811,0.34521,0.37305,0.33545,0.32861,0.30078,0.27979,0.27783,0.32031,0.28223,0.25732,0.2793,0.30469,0.30176,0.26465,0.25732,0.24658,0.28076,0.26758,0.25098,0.25244,0.25977,0.23389,0.23291,0.23535,0.2373,0.22852,0.22607,0.22607,0.23145,0.24023,0.2373,0.24072,0.23535,0.22949,0.23047,0.23877,0.24414,0.23926,0.23047,0.23486,0.25488,0.24805,0.2583,0.23926,0.23486,0.24316,0.26172,0.24121,0.23633,0.23779,0.23926,0.23047,0.23486,0.23145,0.24658,0.2373,0.22949,0.23242,0.23096,0.22803,0.23047,0.23096,0.22607,0.2251,0.22461,0.21875,0.21777,0.2251,0.2251,0.22021,0.22559,0.22559,0.22656,0.22607,0.22803,0.22754,0.22559,0.22754,0.23438,0.23291,0.23438,0.229,0.23145,0.22754,0.23047,0.22803,0.23145,0.23389,0.23828,0.24023,0.25342,0.25635,0.22949,0.22705,0.22949,0.229,0.23877,0.23193,0.23047,0.229,0.22754,0.23047,0.22803,0.22705,0.22607,0.23193,0.2417,0.24365,0.24951,0.23389,0.22705,0.22949,0.22607,0.22607,0.22607,0.22656,0.22852,0.22754,0.22607,0.22607,0.22607,0.22559,0.22363,0.22607,0.22168,0.22168,0.2251,0.22559,0.22412,0.22217,0.21533,0.22412,0.21338,0.21924,0.21533,0.22119,0.21973,0.20703,0.21289,0.21045,0.22119,0.22363,0.22217,0.21387,0.22119,0.22607,0.22656,0.22559,0.22461,0.22607,0.22461,0.22607,0.22559,0.21826,0.22363
0.49854,0.5332,0.46729,0.51221,0.49707,0.49854,0.4541,0.50781,0.49707,0.55273,0.54639,0.5376,0.5498,0.54883,0.5249,0.51611,0.57422,0.53955,0.58789,0.54395,0.521,0.50391,0.5332,0.50781,0.49414,0.48535,0.4707,0.47949,0.5459,0.48438,0.54834,0.59375,0.56836,0.58008,0.60352,0.59033,0.59912,0.61328,0.59912,0.59814,0.54004,0.57617,0.55713,0.57812,0.5332,0.5332,0.56543,0.57275,0.59912,0.58008,0.5376,0.54004,0.55713,0.55176,0.5498,0.55371,0.54395,0.58496,0.56738,0.55518,0.51074,0.55371,0.58398,0.53711,0.52246,0.53711,0.50342,0.50781,0.48584,0.47803,0.47217,0.48779,0.5166,0.5376,0.50293,0.49609,0.48145,0.50977,0.43213,0.42871,0.39551,0.43945,0.40088,0.4126,0.40918,0.44678,0.43555,0.46094,0.4541,0.48047,0.52539,0.5332,0.50537,0.58594,0.55713,0.49805,0.51465,0.5625,0.52051,0.51367,0.49707,0.48584,0.44043,0.44434,0.3877,0.43408,0.38428,0.35693,0.36426,0.29785,0.31006,0.3418,0.30713,0.30322,0.32666,0.31348,0.28613,0.27002,0.30908,0.33496,0.28027,0.25586,0.30713,0.2998,0.26514,0.29443,0.32129,0.2998,0.29932,0.32129,0.35107,0.34863,0.34277,0.27979,0.34521,0.34814,0.31738,0.31543,0.29785,0.32617,0.27197,0.24951,0.26221,0.27002,0.3335,0.35547,0.30127,0.29102,0.30762,0.31396,0.32275,0.32227,0.28076,0.25244,0.28467,0.27197,0.25732,0.26172,0.26074,0.2666,0.26416,0.23682,0.23926,0.24121,0.23877,0.24756,0.26465,0.24414,0.25049,0.25293,0.26758,0.33643,0.31396,0.33252,0.30078,0.29785,0.31689,0.31494,0.3252,0.31445,0.32715,0.29688,0.29834,0.33838,0.27637,0.32227,0.29932,0.34814,0.34375,0.34229,0.33838,0.3877,0.35107,0.39209,0.32422,0.32227,0.34473,0.40771,0.47217,0.41602,0.35449,0.35986,0.32666,0.40674,0.35205,0.43311,0.37158,0.41406,0.33398,0.31201,0.31641,0.2749,0.32129,0.28271,0.32959,0.31592,0.26807,0.28906,0.26123,0.27051,0.2998,0.29688,0.2959,0.32715,0.35303,0.34717,0.33252,0.39258,0.30078,0.31738,0.26904,0.28369,0.27881,0.26465,0.2793,0.28174,0.28564,0.25635,0.25244,0.30176,0.25732,0.26855,0.24951,0.25635,0.25391,0.24658,0.26074,0.23486,0.22852,0.24561,0.22705,0.22559,0.23486,0.23389,0.24414,0.23486,0.23242,0.22949,0.24365,0.22998,0.23096,0.22656,0.22852,0.23828,0.25098,0.24414,0.23682,0.26123,0.24512,0.22949,0.229,0.22803,0.229,0.24121,0.24609,0.23535,0.23438,0.23096,0.23193,0.23145,0.23291,0.22705,0.24365,0.23291,0.2373,0.23096,0.22949,0.2251,0.21875,0.21582,0.22559,0.22119,0.22461,0.22119,0.22607,0.22217,0.22559,0.22852,0.229,0.23389,0.229,0.22705,0.22705,0.22559,0.22705,0.22559,0.2251,0.22656,0.22705,0.22607,0.22607,0.23242,0.22754,0.23486,0.23291,0.23633,0.23145,0.22949,0.23047,0.23486,0.23486,0.23145,0.22803,0.23193,0.22607,0.22852,0.22607,0.22656,0.22852,0.23096,0.23438,0.23877,0.23926,0.22949,0.22949,0.22852,0.2251,0.22852,0.22559,0.22705,0.22607,0.22852,0.23145,0.23047,0.22607,0.22656,0.22705,0.23096,0.22607,0.22559,0.22607,0.22168,0.22021,0.22217,0.22559,0.22217,0.21875,0.2085,0.22266,0.22217,0.18408,0.1875,0.16699,0.2168,0.2002,0.22607,0.22412,0.21729,0.22314,0.2251,0.22314,0.22314,0.22656,0.22217,0.22705,0.22412,0.22607,0.22559,0.22217
0.48047,0.49414,0.50537,0.47217,0.43896,0.479,0.45117,0.49561,0.53711,0.50488,0.54834,0.52441,0.55713,0.52686,0.5249,0.5332,0.58398,0.56934,0.55371,0.55713,0.53613,0.51611,0.49951,0.49219,0.47217,0.4834,0.49609,0.47656,0.47412,0.53711,0.5332,0.54883,0.54199,0.55371,0.58008,0.5957,0.57031,0.5918,0.56641,0.57373,0.57422,0.55762,0.53955,0.54883,0.52979,0.57129,0.54736,0.55078,0.56152,0.59131,0.58936,0.57617,0.54492,0.58008,0.56836,0.58789,0.57373,0.57275,0.56152,0.53711,0.56543,0.57715,0.54199,0.54883,0.53418,0.56641,0.55713,0.48926,0.50586,0.45264,0.47803,0.51807,0.55273,0.55762,0.58008,0.53076,0.54102,0.52246,0.44043,0.44189,0.41748,0.45264,0.43701,0.41895,0.43701,0.46338,0.44385,0.4502,0.49463,0.45459,0.52832,0.52441,0.55371,0.56738,0.58008,0.54004,0.5,0.53223,0.54102,0.521,0.48438,0.48486,0.43115,0.45117,0.40527,0.4502,0.3833,0.38965,0.38037,0.34229,0.35791,0.31494,0.27783,0.27051,0.26416,0.29492,0.25928,0.26465,0.2998,0.28467,0.26855,0.29102,0.26709,0.27832,0.34082,0.33936,0.36816,0.33594,0.38477,0.35449,0.33838,0.32617,0.31738,0.30811,0.31055,0.34277,0.3374,0.3042,0.28613,0.29102,0.28125,0.25586,0.24512,0.27051,0.27734,0.32324,0.34961,0.30811,0.33301,0.29102,0.30273,0.3291,0.26758,0.26562,0.28223,0.26953,0.27197,0.24463,0.24512,0.23926,0.25293,0.25049,0.23535,0.24658,0.24023,0.23682,0.25098,0.24268,0.27539,0.2793,0.26172,0.29492,0.2832,0.31152,0.27539,0.26904,0.31494,0.30469,0.32812,0.32568,0.37207,0.35547,0.31396,0.33594,0.31836,0.32129,0.375,0.34863,0.37988,0.32959,0.36182,0.3833,0.33643,0.37939,0.42578,0.40137,0.38574,0.4707,0.43018,0.43066,0.37695,0.40332,0.36816,0.37012,0.34766,0.42627,0.37695,0.37158,0.3252,0.35742,0.28467,0.28125,0.30859,0.28662,0.27002,0.3125,0.26953,0.27637,0.25684,0.26953,0.31006,0.36182,0.33789,0.37158,0.39551,0.34814,0.31982,0.37451,0.37158,0.34912,0.33936,0.27051,0.31494,0.28662,0.26953,0.28223,0.27686,0.25537,0.31348,0.30615,0.26465,0.24658,0.26611,0.24951,0.23584,0.24561,0.23486,0.24854,0.25537,0.23828,0.23779,0.23291,0.24268,0.23926,0.24658,0.24365,0.26367,0.24219,0.23047,0.22803,0.22803,0.22754,0.22607,0.23438,0.22852,0.23096,0.25244,0.24072,0.22852,0.23193,0.22803,0.22754,0.22754,0.22852,0.23584,0.23242,0.23486,0.23096,0.23926,0.24512,0.23975,0.23047,0.24658,0.24219,0.22754,0.22607,0.22412,0.2251,0.22461,0.22412,0.22314,0.22266,0.21973,0.22559,0.22363,0.22559,0.22461,0.22656,0.23291,0.22949,0.23486,0.22803,0.22412,0.22461,0.22559,0.22217,0.2251,0.2251,0.22119,0.22559,0.2251,0.22607,0.22461,0.22607,0.23438,0.23389,0.2373,0.23926,0.23193,0.22803,0.22607,0.22949,0.22949,0.22754,0.22949,0.22607,0.22412,0.22656,0.22852,0.23096,0.23877,0.23633,0.229,0.22803,0.22705,0.22607,0.2251,0.22607,0.22607,0.22705,0.2373,0.23633,0.229,0.23242,0.23535,0.23584,0.23633,0.22754,0.23096,0.229,0.22559,0.2251,0.22314,0.22266,0.22119,0.22412,0.22607,0.22217,0.2002,0.19727,0.14893,0.1665,0.2041,0.19824,0.21289,0.22217,0.21875,0.22314,0.21777,0.22168,0.22363,0.22266,0.22168,0.22412,0.22021,0.22266,0.2251,0.22559,0.21777
0.48682,0.53613,0.52051,0.50928,0.47656,0.48486,0.48926,0.54004,0.50391,0.52246,0.49951,0.53711,0.53076,0.51758,0.50781,0.56152,0.55176,0.53711,0.56494,0.57129,0.51855,0.49561,0.51074,0.48145,0.47559,0.46729,0.45459,0.49951,0.49316,0.53076,0.52051,0.53223,0.57715,0.52344,0.5332,0.56396,0.54639,0.58252,0.56396,0.55176,0.5459,0.52734,0.5,0.50977,0.53076,0.5791,0.5791,0.56934,0.57812,0.57129,0.56152,0.5293,0.59033,0.58691,0.58789,0.58691,0.56738,0.57031,0.57715,0.5625,0.55713,0.58691,0.57129,0.5376,0.5332,0.5459,0.55176,0.52832,0.47412,0.50537,0.49756,0.56055,0.53613,0.54004,0.5332,0.49414,0.53516,0.49316,0.42871,0.44629,0.48828,0.44678,0.42871,0.46191,0.4541,0.4043,0.47266,0.41943,0.43701,0.48779,0.48682,0.48584,0.50342,0.51221,0.5791,0.56738,0.48682,0.48682,0.51221,0.50781,0.53418,0.46338,0.44873,0.50586,0.47656,0.41064,0.37793,0.37793,0.3833,0.39209,0.35889,0.37793,0.3125,0.2666,0.28125,0.35938,0.31641,0.27197,0.26514,0.29346,0.27832,0.28125,0.26416,0.28076,0.31738,0.31934,0.32373,0.31543,0.35205,0.35986,0.32422,0.29346,0.33545,0.29199,0.36768,0.38525,0.36377,0.30811,0.30371,0.34473,0.2666,0.26514,0.24658,0.25879,0.26514,0.31641,0.28125,0.33398,0.271,0.27051,0.33887,0.35205,0.27246,0.27783,0.29834,0.27539,0.26514,0.24463,0.271,0.25342,0.26465,0.24268,0.24414,0.27881,0.24561,0.23193,0.25342,0.25586,0.26025,0.25635,0.2876,0.35107,0.30029,0.28369,0.27686,0.29443,0.27148,0.31787,0.3335,0.35938,0.38281,0.35498,0.34082,0.30225,0.35547,0.30273,0.2959,0.31787,0.33496,0.31934,0.37939,0.38623,0.38623,0.39844,0.3877,0.45459,0.4541,0.46094,0.3833,0.46191,0.38721,0.38965,0.41943,0.43457,0.39746,0.35645,0.34375,0.354,0.35107,0.31934,0.3374,0.28809,0.30273,0.2583,0.31689,0.28809,0.31445,0.27051,0.27295,0.27051,0.28076,0.35986,0.29688,0.31592,0.35498,0.36621,0.33301,0.35352,0.32031,0.28613,0.29785,0.30078,0.28271,0.24121,0.23926,0.24609,0.25537,0.24951,0.2583,0.34814,0.2998,0.23877,0.24219,0.24219,0.24219,0.23779,0.24121,0.25195,0.24805,0.23389,0.24365,0.23438,0.22656,0.2417,0.229,0.23389,0.22998,0.24805,0.24072,0.22607,0.22607,0.22559,0.22607,0.22607,0.22607,0.23242,0.22754,0.25635,0.24463,0.22705,0.22803,0.22607,0.22852,0.22852,0.22852,0.23926,0.23535,0.24805,0.22998,0.23486,0.2373,0.22998,0.23877,0.22998,0.22754,0.22559,0.23145,0.22559,0.22656,0.2207,0.22412,0.22168,0.22607,0.23047,0.22705,0.22754,0.22607,0.22559,0.22607,0.229,0.22852,0.22607,0.2251,0.22559,0.22314,0.22266,0.22607,0.22607,0.22559,0.22412,0.22705,0.22656,0.23291,0.23975,0.23926,0.229,0.24023,0.23633,0.22607,0.23486,0.23438,0.23193,0.22998,0.23828,0.23047,0.22803,0.22607,0.23047,0.22607,0.22607,0.22998,0.23926,0.22656,0.22998,0.22559,0.22656,0.22607,0.22559,0.22656,0.22607,0.22949,0.2334,0.23193,0.23242,0.2373,0.22998,0.22754,0.22607,0.22803,0.22705,0.22607,0.22217,0.2207,0.21875,0.22363,0.22217,0.2251,0.22119,0.21826,0.2041,0.21338,0.21631,0.20801,0.21191,0.20557,0.22412,0.2207,0.22461,0.2251,0.21338,0.2251,0.22559,0.21826,0.21387,0.21191,0.22363,0.22217,0.22607,0.21777
0.5625,0.52197,0.51953,0.53076,0.5376,0.48926,0.4668,0.5293,0.49316,0.50293,0.51758,0.50098,0.48584,0.5166,0.49707,0.52197,0.51318,0.5,0.54883,0.57422,0.53857,0.51807,0.48682,0.49854,0.52832,0.51074,0.49316,0.46777,0.48145,0.53955,0.57422,0.55176,0.54883,0.53076,0.53418,0.58496,0.53418,0.51367,0.52441,0.57275,0.54102,0.54199,0.4917,0.52051,0.54834,0.58008,0.61035,0.58789,0.56738,0.5459,0.55713,0.53711,0.53711,0.59033,0.60254,0.59668,0.56152,0.55371,0.54004,0.55078,0.54199,0.55859,0.57129,0.55859,0.51807,0.4834,0.55078,0.53418,0.5332,0.53613,0.56934,0.54199,0.49316,0.4668,0.50586,0.50342,0.50391,0.4209,0.47705,0.48047,0.44678,0.4707,0.45264,0.42383,0.42676,0.38477,0.39502,0.45996,0.50684,0.49414,0.49365,0.48926,0.53711,0.52197,0.51758,0.53711,0.53955,0.47705,0.49561,0.53076,0.44336,0.44043,0.43311,0.49072,0.44531,0.39014,0.37695,0.43213,0.4248,0.42822,0.41162,0.36426,0.31641,0.31445,0.31689,0.34521,0.29199,0.28906,0.29541,0.28223,0.28857,0.26904,0.26074,0.28955,0.28174,0.32568,0.3042,0.35449,0.38867,0.34521,0.33447,0.2832,0.27588,0.29395,0.3623,0.37695,0.40918,0.36084,0.3667,0.33398,0.28271,0.28223,0.271,0.25488,0.25537,0.2832,0.28271,0.31592,0.29297,0.2959,0.33398,0.32227,0.27783,0.28125,0.29785,0.27344,0.30713,0.28613,0.26904,0.24219,0.26416,0.25879,0.26807,0.27393,0.25146,0.24951,0.26416,0.23926,0.24023,0.26123,0.28857,0.33936,0.29541,0.28223,0.26953,0.30811,0.36426,0.3374,0.34131,0.35205,0.38135,0.38086,0.36426,0.3335,0.37158,0.31592,0.3252,0.32471,0.32617,0.39697,0.40869,0.38623,0.33838,0.34229,0.35986,0.45459,0.41211,0.36426,0.35205,0.39502,0.39014,0.33789,0.354,0.41699,0.32227,0.31104,0.30957,0.31299,0.30127,0.30322,0.33496,0.29297,0.29004,0.28955,0.33984,0.33398,0.28467,0.2998,0.26904,0.30225,0.27344,0.29443,0.32031,0.32715,0.2998,0.33203,0.33984,0.35693,0.3457,0.30322,0.34766,0.29883,0.26318,0.23633,0.23438,0.24365,0.24512,0.25488,0.27197,0.30859,0.25342,0.24219,0.23047,0.23193,0.22656,0.22998,0.2334,0.23633,0.24854,0.25684,0.22852,0.22607,0.22705,0.23047,0.23828,0.22803,0.24365,0.24365,0.23926,0.22754,0.229,0.22656,0.22412,0.22656,0.22705,0.22705,0.22998,0.23926,0.23096,0.22705,0.2251,0.22803,0.22656,0.22803,0.23389,0.24707,0.24268,0.24316,0.23926,0.23486,0.24268,0.25635,0.24658,0.22949,0.23193,0.23242,0.22559,0.22607,0.22559,0.22412,0.2251,0.22412,0.22559,0.22852,0.22607,0.22656,0.22754,0.229,0.22656,0.23438,0.24268,0.229,0.23291,0.22705,0.22559,0.22559,0.22656,0.229,0.23291,0.22705,0.23291,0.22852,0.23584,0.24658,0.25049,0.23047,0.22705,0.22656,0.22656,0.23047,0.23145,0.22998,0.23389,0.23486,0.22607,0.22656,0.22705,0.22705,0.22559,0.22656,0.22656,0.23242,0.22705,0.22656,0.23047,0.22607,0.22607,0.23096,0.23047,0.23047,0.22852,0.22607,0.22705,0.23389,0.23438,0.23389,0.22852,0.22656,0.22363,0.22266,0.22363,0.2251,0.22559,0.21826,0.22461,0.22266,0.20898,0.21924,0.20898,0.19824,0.18652,0.21582,0.21436,0.20312,0.21338,0.21973,0.21875,0.2251,0.21875,0.21924,0.21777,0.22607,0.21826,0.21973,0.2207,0.2168,0.22461,0.22217,0.2251
0.51221,0.5459,0.56738,0.55615,0.56055,0.52197,0.53711,0.54736,0.48291,0.48047,0.50684,0.49316,0.52344,0.52197,0.51074,0.50391,0.50293,0.50098,0.52246,0.52344,0.49951,0.48926,0.4834,0.47705,0.47949,0.48779,0.52441,0.4375,0.49707,0.521,0.55615,0.5293,0.53223,0.54736,0.54395,0.51758,0.54395,0.521,0.54004,0.54004,0.51611,0.52051,0.56934,0.50781,0.56494,0.60254,0.56152,0.6167,0.55518,0.55713,0.56396,0.52686,0.57129,0.54199,0.56934,0.58008,0.54492,0.57031,0.55176,0.52197,0.5249,0.51758,0.55078,0.54736,0.49414,0.479,0.54199,0.50879,0.52344,0.50977,0.54297,0.50098,0.45996,0.48486,0.46436,0.48584,0.44922,0.40283,0.42041,0.49365,0.4248,0.44678,0.4082,0.37158,0.43896,0.45459,0.4541,0.43359,0.49023,0.48535,0.44678,0.48926,0.50781,0.49219,0.48047,0.52246,0.45117,0.46338,0.53516,0.54004,0.47949,0.40283,0.48682,0.49854,0.46436,0.46191,0.42334,0.39502,0.48682,0.44043,0.44385,0.38086,0.39014,0.34863,0.40771,0.38818,0.39844,0.29834,0.31689,0.27588,0.2876,0.32617,0.33447,0.27637,0.32031,0.3335,0.35449,0.3208,0.33301,0.31592,0.31152,0.26465,0.27979,0.30957,0.34229,0.35303,0.35107,0.30615,0.30713,0.32812,0.32959,0.28662,0.27686,0.24316,0.27881,0.24658,0.28223,0.27832,0.32324,0.28027,0.31104,0.2793,0.27637,0.27051,0.29541,0.28662,0.30322,0.30762,0.29492,0.26221,0.28418,0.27783,0.26904,0.2793,0.26074,0.2749,0.26123,0.2583,0.29102,0.30908,0.28516,0.36133,0.35938,0.33691,0.36182,0.34619,0.37012,0.36621,0.34912,0.37305,0.33398,0.38037,0.37842,0.37158,0.27344,0.2998,0.3252,0.28906,0.34277,0.35107,0.33252,0.31592,0.34131,0.34717,0.36621,0.38965,0.38232,0.43213,0.36035,0.42285,0.32129,0.34473,0.37646,0.37061,0.34229,0.30957,0.32959,0.3042,0.31152,0.30713,0.30176,0.28125,0.26514,0.27979,0.26758,0.28027,0.31348,0.28857,0.33057,0.2749,0.271,0.32129,0.28711,0.27783,0.32324,0.30566,0.34082,0.34082,0.32471,0.26514,0.30127,0.25928,0.24756,0.26172,0.23828,0.24414,0.24609,0.24512,0.30371,0.27783,0.25537,0.23877,0.25732,0.23486,0.22852,0.24219,0.24609,0.24316,0.23291,0.26025,0.23096,0.22607,0.22607,0.22656,0.22656,0.22754,0.24072,0.23145,0.25342,0.23779,0.22705,0.23486,0.22607,0.2251,0.23096,0.23193,0.23438,0.23584,0.22803,0.22852,0.22803,0.22559,0.22607,0.23047,0.23291,0.23389,0.23486,0.22949,0.229,0.22656,0.24854,0.24463,0.23193,0.23047,0.229,0.22754,0.23096,0.22803,0.22461,0.22998,0.22363,0.229,0.22949,0.22852,0.23096,0.2251,0.22656,0.23047,0.23975,0.23926,0.229,0.22754,0.229,0.22705,0.22754,0.22412,0.22656,0.22607,0.22607,0.23584,0.23486,0.22852,0.22754,0.23926,0.24805,0.2334,0.22656,0.23486,0.22607,0.229,0.22705,0.23047,0.23828,0.23926,0.23145,0.22803,0.229,0.22607,0.22607,0.23047,0.22803,0.22656,0.22607,0.22607,0.22559,0.22607,0.23584,0.22754,0.22852,0.22705,0.23535,0.22559,0.22607,0.22607,0.22607,0.23291,0.22949,0.22754,0.22607,0.22461,0.22607,0.22559,0.21875,0.20898,0.2207,0.22559,0.21436,0.22363,0.21631,0.21436,0.2168,0.20068,0.21875,0.22217,0.22314,0.21729,0.22461,0.2168,0.2251,0.2251,0.22266,0.22559,0.2251,0.22559,0.22461,0.21338,0.2251,0.22021,0.22217
0.5249,0.56055,0.53223,0.5332,0.50391,0.5498,0.56396,0.5459,0.50879,0.50781,0.47705,0.48779,0.50342,0.5293,0.51562,0.51074,0.49854,0.51611,0.51465,0.51318,0.45215,0.47705,0.45264,0.46094,0.4917,0.51953,0.51367,0.48828,0.51855,0.52979,0.4917,0.4917,0.48779,0.53125,0.50537,0.52051,0.52832,0.55176,0.53711,0.52344,0.57275,0.54883,0.55713,0.53418,0.58008,0.59814,0.60791,0.6001,0.60693,0.60156,0.58789,0.55371,0.5459,0.52051,0.52051,0.57275,0.56641,0.52734,0.54199,0.51465,0.49463,0.48145,0.50977,0.54004,0.56348,0.51465,0.5293,0.53857,0.53711,0.54639,0.50342,0.47607,0.46973,0.50098,0.44141,0.46338,0.46777,0.42334,0.40674,0.45117,0.48047,0.43115,0.35107,0.37012,0.40137,0.4541,0.48926,0.45605,0.45215,0.47705,0.52051,0.49561,0.52734,0.50391,0.51221,0.44189,0.45264,0.50586,0.52734,0.47803,0.45898,0.44092,0.4248,0.44531,0.43359,0.47119,0.4375,0.43018,0.48926,0.46777,0.46924,0.4082,0.42871,0.40088,0.38574,0.39014,0.36279,0.38135,0.3501,0.28564,0.2832,0.32129,0.35449,0.31738,0.32178,0.29492,0.27832,0.30371,0.271,0.27588,0.26367,0.29736,0.34668,0.36426,0.33057,0.34814,0.34863,0.31348,0.33936,0.32227,0.31836,0.26172,0.25684,0.26514,0.24805,0.25,0.25781,0.271,0.31104,0.30859,0.27588,0.28223,0.26172,0.2832,0.25977,0.28271,0.25635,0.27148,0.27734,0.29102,0.25928,0.26172,0.25195,0.26953,0.29053,0.27979,0.24951,0.25684,0.30176,0.31348,0.35107,0.32666,0.32129,0.3623,0.38525,0.35156,0.32959,0.34863,0.32129,0.37549,0.31934,0.29688,0.33496,0.31592,0.33398,0.28027,0.29541,0.32666,0.34863,0.34912,0.34766,0.32275,0.40918,0.39746,0.41504,0.42725,0.39209,0.46094,0.39941,0.40332,0.33838,0.32959,0.36865,0.36475,0.2959,0.30811,0.27148,0.28467,0.28027,0.27734,0.2959,0.26367,0.25146,0.25635,0.24658,0.2793,0.27344,0.271,0.2876,0.30811,0.33008,0.31445,0.28271,0.29688,0.2793,0.29395,0.36279,0.38623,0.32715,0.27881,0.25293,0.26221,0.28271,0.24609,0.25244,0.23438,0.2334,0.23975,0.24121,0.29053,0.24854,0.25488,0.26318,0.23242,0.23584,0.24805,0.27148,0.24365,0.23389,0.24219,0.23486,0.229,0.23047,0.2334,0.22607,0.22607,0.22803,0.23779,0.23047,0.24414,0.25244,0.23926,0.22803,0.22559,0.22607,0.22803,0.23047,0.24072,0.24365,0.23486,0.22607,0.22852,0.22754,0.23291,0.23242,0.23145,0.22998,0.22754,0.22705,0.23047,0.22754,0.24121,0.22949,0.23535,0.22607,0.2251,0.22705,0.22559,0.22607,0.22949,0.22949,0.22754,0.22607,0.2334,0.2373,0.22607,0.23438,0.22949,0.22656,0.23193,0.23486,0.22607,0.22852,0.22607,0.23047,0.22754,0.22607,0.22705,0.23096,0.23145,0.23242,0.23486,0.22754,0.229,0.23682,0.24365,0.24756,0.23242,0.22803,0.22656,0.23047,0.23047,0.23047,0.23682,0.23535,0.23047,0.22607,0.22852,0.23096,0.23047,0.22607,0.22852,0.22607,0.22803,0.22607,0.23047,0.22656,0.22754,0.22656,0.23047,0.2373,0.22852,0.22559,0.22607,0.22607,0.2251,0.22363,0.22754,0.22559,0.22461,0.21094,0.21631,0.21338,0.2124,0.22314,0.22314,0.22461,0.22559,0.22607,0.22314,0.22266,0.21533,0.21631,0.22119,0.22119,0.21875,0.21045,0.21924,0.22461,0.22559,0.22607,0.22314,0.22412,0.22607,0.22363,0.22461,0.2251,0.22607,0.22559
0.56348,0.55713,0.50879,0.52734,0.56396,0.54395,0.52051,0.521,0.51758,0.49805,0.51465,0.53857,0.51807,0.54199,0.53125,0.54199,0.5166,0.53076,0.55518,0.53857,0.47607,0.48926,0.44189,0.49707,0.51953,0.48584,0.49707,0.50195,0.49707,0.46826,0.48047,0.47705,0.51855,0.55176,0.51953,0.51758,0.50928,0.49463,0.54199,0.46973,0.56738,0.55176,0.51807,0.53857,0.54883,0.55078,0.54736,0.59375,0.56494,0.53857,0.56836,0.5459,0.58691,0.52686,0.55518,0.58936,0.52344,0.5249,0.52441,0.55615,0.53613,0.48584,0.48828,0.51807,0.50098,0.52979,0.53857,0.54395,0.5625,0.48486,0.44287,0.46777,0.44043,0.49951,0.48682,0.41162,0.41309,0.48145,0.4248,0.42529,0.48145,0.4209,0.44531,0.35107,0.38574,0.45117,0.40039,0.44141,0.45264,0.40967,0.49707,0.43896,0.44385,0.5249,0.44189,0.50098,0.47607,0.46484,0.50879,0.48535,0.49072,0.4668,0.41846,0.42578,0.50586,0.50391,0.49023,0.46729,0.41064,0.45947,0.47412,0.44238,0.41162,0.43652,0.34814,0.37744,0.37402,0.33301,0.31104,0.28662,0.30371,0.29785,0.34473,0.31689,0.29688,0.3042,0.31934,0.30908,0.28662,0.28076,0.2959,0.2749,0.29688,0.30811,0.3291,0.36133,0.35938,0.32812,0.31299,0.3291,0.31982,0.3125,0.271,0.30176,0.26611,0.25,0.27246,0.27051,0.32861,0.28955,0.31641,0.3252,0.28516,0.28076,0.31885,0.26465,0.2959,0.29785,0.29346,0.31787,0.2666,0.28467,0.26221,0.25195,0.30957,0.28271,0.26416,0.29297,0.31592,0.27979,0.3335,0.31299,0.38623,0.37402,0.39209,0.36279,0.31787,0.34717,0.37598,0.37012,0.33984,0.33545,0.31885,0.29297,0.28223,0.31396,0.3291,0.35107,0.32129,0.35596,0.29932,0.35254,0.35791,0.38037,0.3291,0.4043,0.3833,0.39014,0.35449,0.35107,0.31201,0.34863,0.3335,0.29199,0.34326,0.3042,0.30713,0.28076,0.27734,0.26904,0.25195,0.27393,0.25684,0.28027,0.3042,0.26807,0.28223,0.2793,0.27588,0.354,0.30762,0.33447,0.29102,0.28857,0.3335,0.28174,0.29541,0.40479,0.38428,0.34473,0.26953,0.26758,0.28223,0.23633,0.24316,0.23535,0.24365,0.24854,0.25195,0.23926,0.24707,0.23291,0.24805,0.22949,0.23877,0.24072,0.22998,0.2373,0.25635,0.24121,0.23828,0.22803,0.22852,0.22754,0.22949,0.23047,0.22754,0.23486,0.23877,0.23584,0.23438,0.23047,0.22656,0.22656,0.22705,0.22412,0.22803,0.23486,0.24268,0.23242,0.2334,0.2417,0.25098,0.22803,0.23047,0.22803,0.23047,0.23145,0.22705,0.23535,0.22754,0.22607,0.23633,0.22705,0.22705,0.22412,0.22412,0.22217,0.22803,0.22607,0.2251,0.23047,0.22754,0.22656,0.2251,0.22852,0.22803,0.23486,0.23535,0.229,0.22607,0.22998,0.22607,0.22803,0.22754,0.22949,0.22607,0.22803,0.23486,0.24756,0.24414,0.24561,0.24072,0.22705,0.22754,0.25342,0.24268,0.24463,0.2373,0.22998,0.23633,0.23828,0.22949,0.24414,0.22852,0.22607,0.22803,0.23877,0.23389,0.22852,0.24365,0.22705,0.22998,0.229,0.22656,0.23047,0.22607,0.23096,0.23584,0.22656,0.22656,0.22803,0.22754,0.22754,0.22559,0.22217,0.22559,0.22607,0.22363,0.22217,0.21924,0.20068,0.21631,0.20312,0.22217,0.21777,0.21338,0.21777,0.22559,0.22559,0.22412,0.2168,0.22412,0.22168,0.22217,0.22119,0.21729,0.2251,0.22217,0.22217,0.22021,0.21777,0.22363,0.22559,0.2251,0.22021,0.2251,0.22266,0.22363
0.50781,0.55176,0.51221,0.51758,0.50928,0.5498,0.51953,0.51318,0.51855,0.52832,0.56055,0.52686,0.48486,0.4917,0.50684,0.50977,0.5376,0.54395,0.54736,0.53125,0.52734,0.5,0.45215,0.47266,0.49951,0.48193,0.4502,0.47412,0.47949,0.47559,0.46924,0.48486,0.51953,0.50293,0.52344,0.51953,0.5166,0.51562,0.51855,0.50586,0.55957,0.58154,0.58008,0.54199,0.53516,0.53955,0.51855,0.56348,0.57617,0.5332,0.56348,0.57617,0.59277,0.57617,0.54395,0.54492,0.49219,0.51807,0.49951,0.54883,0.55518,0.55762,0.55176,0.49414,0.5376,0.54736,0.56152,0.54883,0.5459,0.4624,0.45361,0.4458,0.38721,0.41211,0.36572,0.38867,0.37939,0.44531,0.44287,0.38721,0.45459,0.46338,0.41162,0.38574,0.36475,0.3833,0.45947,0.48047,0.49609,0.41113,0.38965,0.42236,0.43457,0.49609,0.4458,0.48438,0.4165,0.4502,0.45117,0.48193,0.49756,0.48926,0.53076,0.48193,0.48682,0.4668,0.44922,0.44434,0.38525,0.40039,0.45752,0.4707,0.45459,0.38379,0.40234,0.35547,0.35938,0.31982,0.28662,0.31641,0.30078,0.30371,0.31641,0.29492,0.29736,0.3252,0.34912,0.33105,0.30029,0.31299,0.28711,0.28711,0.26758,0.29785,0.3501,0.3374,0.34863,0.34424,0.30957,0.34277,0.32129,0.32129,0.28564,0.31055,0.32715,0.2876,0.29785,0.30713,0.31836,0.30957,0.3335,0.32764,0.29785,0.30469,0.3252,0.30078,0.27734,0.27246,0.25537,0.2959,0.2915,0.26025,0.26172,0.28467,0.29248,0.32959,0.29541,0.27344,0.27393,0.29834,0.30566,0.35107,0.34277,0.3291,0.36523,0.33643,0.30371,0.31641,0.33252,0.3291,0.36328,0.31104,0.28271,0.31689,0.36133,0.33398,0.30664,0.34424,0.36719,0.30957,0.35791,0.31494,0.30859,0.33936,0.34521,0.33252,0.37012,0.41846,0.34082,0.30811,0.30322,0.28809,0.26514,0.27881,0.32422,0.33252,0.27637,0.24805,0.27246,0.24951,0.23975,0.25098,0.27148,0.30859,0.26904,0.27002,0.25586,0.2666,0.32129,0.32764,0.28955,0.30859,0.30078,0.29932,0.26318,0.29102,0.3252,0.32715,0.31641,0.36035,0.35107,0.26904,0.23877,0.24414,0.23389,0.22852,0.23047,0.2334,0.2417,0.2373,0.24463,0.23438,0.23096,0.22949,0.23535,0.24072,0.24414,0.23291,0.229,0.24219,0.23486,0.22705,0.22607,0.22607,0.22559,0.22705,0.22705,0.22705,0.23242,0.24414,0.23438,0.23291,0.22656,0.22949,0.23145,0.22607,0.22803,0.22949,0.23535,0.22803,0.23096,0.25391,0.27197,0.24072,0.24658,0.23047,0.22754,0.22607,0.22705,0.23926,0.22998,0.22559,0.22705,0.22705,0.22607,0.22803,0.22363,0.22266,0.2251,0.22656,0.229,0.22559,0.22559,0.22461,0.22656,0.22998,0.23291,0.22852,0.22754,0.23291,0.22607,0.22656,0.2251,0.2251,0.23096,0.22852,0.22754,0.22607,0.23682,0.23926,0.24609,0.23047,0.2417,0.23193,0.22949,0.2334,0.23145,0.23535,0.23438,0.23291,0.22705,0.22998,0.24512,0.24854,0.23438,0.22705,0.23291,0.2334,0.23096,0.23535,0.22949,0.2373,0.23145,0.22607,0.22607,0.22754,0.23682,0.23096,0.23242,0.22949,0.23193,0.23047,0.23486,0.22803,0.22607,0.2251,0.22607,0.22607,0.21826,0.21924,0.22266,0.20996,0.20557,0.21875,0.2168,0.2168,0.21338,0.21533,0.21436,0.2251,0.2207,0.22363,0.21436,0.21973,0.22217,0.21826,0.22363,0.22412,0.22021,0.22119,0.22412,0.22119,0.22217,0.22559,0.2251,0.21631,0.21631,0.21924,0.22119
0.47266,0.51758,0.4917,0.49561,0.51074,0.49219,0.53418,0.5293,0.48926,0.4917,0.51465,0.51758,0.5,0.5498,0.51465,0.49561,0.52344,0.47559,0.53711,0.50098,0.51074,0.5293,0.46582,0.49316,0.51807,0.53613,0.50977,0.51611,0.49365,0.47412,0.50293,0.50293,0.53857,0.54492,0.55371,0.49756,0.51807,0.50781,0.5293,0.49463,0.53857,0.60156,0.59375,0.56396,0.55713,0.55371,0.57715,0.58398,0.53516,0.57129,0.58398,0.58301,0.5625,0.58496,0.58936,0.55713,0.521,0.52051,0.50195,0.5332,0.51807,0.55713,0.49756,0.46777,0.53125,0.51074,0.56055,0.51562,0.47461,0.49023,0.49854,0.47266,0.48486,0.47705,0.44434,0.41992,0.42871,0.43018,0.4126,0.35938,0.46924,0.46191,0.44189,0.35107,0.44189,0.42969,0.40039,0.41992,0.45264,0.40479,0.38818,0.42871,0.44189,0.45264,0.50488,0.45898,0.48438,0.4458,0.46191,0.49219,0.52344,0.53516,0.47949,0.46777,0.53516,0.46582,0.45117,0.46338,0.48779,0.43506,0.46484,0.46973,0.40283,0.42676,0.3833,0.34424,0.37695,0.3291,0.32959,0.3125,0.33398,0.34082,0.36084,0.30127,0.3042,0.31787,0.32471,0.3374,0.33496,0.2876,0.30469,0.31348,0.27637,0.31934,0.32471,0.29199,0.31689,0.31006,0.32129,0.30664,0.35986,0.29736,0.30859,0.34277,0.32617,0.28369,0.29102,0.28809,0.32031,0.29541,0.35352,0.33252,0.34912,0.33838,0.31006,0.27393,0.27393,0.29541,0.25684,0.2583,0.30225,0.29639,0.26562,0.29688,0.30811,0.30859,0.29541,0.31934,0.36084,0.36475,0.38672,0.33496,0.3291,0.34473,0.31104,0.33057,0.32227,0.2876,0.31592,0.37598,0.3125,0.31445,0.31396,0.35352,0.33398,0.36865,0.34717,0.36719,0.28857,0.27783,0.27588,0.2793,0.30273,0.30225,0.35596,0.37939,0.34131,0.354,0.36865,0.28809,0.26562,0.28857,0.25293,0.29004,0.26465,0.30176,0.29297,0.25537,0.24365,0.24561,0.25098,0.25146,0.25879,0.26123,0.28369,0.25586,0.25488,0.3042,0.32715,0.30713,0.26514,0.31494,0.30957,0.27051,0.30273,0.31787,0.32812,0.32227,0.33203,0.42041,0.32959,0.28711,0.24414,0.24561,0.25049,0.2417,0.22852,0.23438,0.23828,0.23096,0.23486,0.22656,0.23779,0.22803,0.25439,0.23096,0.22949,0.22705,0.22607,0.22754,0.23047,0.22754,0.22559,0.22803,0.229,0.22461,0.2251,0.22656,0.24365,0.23584,0.23096,0.22852,0.23389,0.22607,0.22656,0.22852,0.23389,0.22803,0.22803,0.2334,0.25391,0.26123,0.22949,0.24414,0.23486,0.23291,0.22852,0.23828,0.23633,0.23242,0.22705,0.2251,0.2251,0.22266,0.22607,0.22852,0.22656,0.21094,0.22461,0.23486,0.22754,0.22803,0.22852,0.22803,0.22607,0.22607,0.23047,0.22607,0.229,0.22607,0.22754,0.23193,0.22852,0.22412,0.22656,0.23047,0.22803,0.2251,0.22656,0.22852,0.23535,0.23291,0.22656,0.23193,0.23047,0.2373,0.23779,0.22998,0.2373,0.22803,0.22998,0.23047,0.23535,0.23193,0.24609,0.24023,0.23291,0.23145,0.22949,0.23145,0.23047,0.23242,0.22998,0.22754,0.22559,0.22607,0.22607,0.23486,0.23438,0.23486,0.22949,0.22949,0.22852,0.23242,0.22656,0.22314,0.22217,0.22461,0.22412,0.2124,0.22217,0.22119,0.21875,0.20605,0.21924,0.21777,0.22217,0.2168,0.21875,0.22217,0.2251,0.22656,0.22656,0.21973,0.22607,0.22461,0.22217,0.22168,0.2251,0.22217,0.22217,0.22461,0.22217,0.22705,0.22363,0.22217,0.21826,0.22168,0.22461
0.50098,0.49561,0.51611,0.51367,0.53076,0.50293,0.48584,0.51074,0.51611,0.51855,0.52051,0.54834,0.5166,0.54395,0.55518,0.49365,0.44922,0.4502,0.44141,0.47949,0.47559,0.48926,0.50293,0.50586,0.56152,0.55859,0.54395,0.5376,0.47705,0.47607,0.46338,0.48584,0.5332,0.53076,0.50781,0.52051,0.50977,0.55078,0.5332,0.54004,0.54834,0.58252,0.58594,0.58154,0.59033,0.53955,0.56641,0.56641,0.58301,0.54004,0.5293,0.56641,0.54004,0.56396,0.56934,0.55713,0.5332,0.50977,0.50781,0.52539,0.50781,0.51172,0.48145,0.49951,0.50928,0.51465,0.47461,0.49805,0.51074,0.45703,0.49365,0.46094,0.48535,0.44629,0.41211,0.42188,0.44043,0.43799,0.45508,0.42236,0.37695,0.41943,0.36768,0.41162,0.39355,0.39893,0.38965,0.40234,0.42822,0.44873,0.4917,0.46191,0.49951,0.50342,0.51562,0.4375,0.4043,0.43311,0.49609,0.4917,0.51953,0.50391,0.55713,0.521,0.54004,0.4917,0.45996,0.44678,0.45508,0.45996,0.46924,0.42676,0.46436,0.42432,0.42383,0.37256,0.38281,0.35205,0.3667,0.35107,0.34375,0.38477,0.37012,0.33252,0.3252,0.29834,0.28662,0.34473,0.33398,0.3252,0.36621,0.3252,0.30127,0.29541,0.30469,0.28662,0.28613,0.31348,0.34717,0.3252,0.31982,0.31055,0.3125,0.33154,0.3374,0.31396,0.29053,0.28076,0.32568,0.31055,0.28906,0.32422,0.35059,0.33545,0.34473,0.28369,0.25391,0.26953,0.29932,0.26807,0.32031,0.30957,0.33154,0.29102,0.26855,0.29004,0.30859,0.36279,0.41406,0.39014,0.40576,0.36279,0.37207,0.37793,0.34717,0.31738,0.2959,0.3208,0.29248,0.33154,0.29248,0.29688,0.31299,0.30469,0.2876,0.30811,0.35938,0.37549,0.34375,0.29297,0.3291,0.30859,0.28662,0.32324,0.31787,0.34473,0.31982,0.36426,0.35742,0.29785,0.28906,0.27148,0.26611,0.27539,0.28857,0.25195,0.23486,0.25195,0.27881,0.29004,0.2627,0.27783,0.30811,0.26514,0.31152,0.2876,0.27686,0.29785,0.25195,0.26514,0.29541,0.27197,0.26318,0.30029,0.30811,0.28271,0.35352,0.35693,0.32275,0.37939,0.36426,0.31787,0.31836,0.27002,0.27344,0.24365,0.25635,0.2373,0.23047,0.23193,0.22656,0.22803,0.22656,0.23682,0.23096,0.24707,0.23242,0.22852,0.22559,0.22656,0.23047,0.22754,0.229,0.22363,0.22217,0.22559,0.22607,0.22852,0.23535,0.23145,0.22852,0.22949,0.23096,0.22754,0.22559,0.22656,0.22559,0.22754,0.22607,0.2373,0.24414,0.24756,0.229,0.229,0.23926,0.23486,0.23047,0.23633,0.23047,0.22803,0.22412,0.2251,0.2251,0.2251,0.22363,0.22266,0.22217,0.22217,0.22363,0.22803,0.22852,0.22754,0.22656,0.23486,0.22754,0.22705,0.22998,0.22607,0.22754,0.22803,0.22607,0.22949,0.22656,0.22656,0.22607,0.23486,0.23096,0.229,0.22607,0.22607,0.22412,0.22705,0.23486,0.23438,0.23828,0.23828,0.24756,0.24121,0.24023,0.23047,0.23193,0.23047,0.23828,0.23584,0.22998,0.23633,0.23389,0.23486,0.23975,0.24805,0.24609,0.23438,0.2373,0.23535,0.23682,0.22607,0.2251,0.229,0.23291,0.22803,0.23486,0.22998,0.22705,0.22754,0.22314,0.22363,0.22607,0.22266,0.22461,0.22314,0.21973,0.22412,0.20898,0.21338,0.20166,0.2207,0.21826,0.21045,0.21484,0.22217,0.22607,0.22656,0.22461,0.22607,0.22607,0.22705,0.22461,0.22607,0.22803,0.22656,0.22656,0.22363,0.22559,0.22559,0.22607,0.22217,0.22559,0.22607,0.22412
0.4624,0.48047,0.44922,0.50342,0.5332,0.55762,0.49463,0.47559,0.51807,0.54883,0.52344,0.55078,0.51562,0.52197,0.48486,0.46973,0.51807,0.46191,0.46484,0.47266,0.50195,0.49609,0.50537,0.50781,0.57031,0.5249,0.52344,0.51807,0.5,0.48291,0.51465,0.50879,0.49707,0.55273,0.55713,0.57275,0.55713,0.59033,0.50488,0.48535,0.57422,0.58301,0.5957,0.59277,0.58301,0.56396,0.57129,0.58398,0.57617,0.54004,0.54102,0.56641,0.53857,0.59912,0.53516,0.56836,0.51074,0.49561,0.49756,0.48682,0.54834,0.50781,0.49756,0.56055,0.47559,0.53711,0.4707,0.51562,0.43506,0.42578,0.47119,0.49072,0.48682,0.50781,0.49414,0.49609,0.46582,0.45215,0.47266,0.48047,0.45996,0.40283,0.39551,0.36377,0.42334,0.39941,0.42139,0.44434,0.46338,0.49219,0.48291,0.42236,0.49414,0.50195,0.41943,0.40283,0.4502,0.45117,0.49756,0.50391,0.52441,0.51465,0.53711,0.53955,0.4624,0.50879,0.50098,0.48535,0.43018,0.40625,0.46191,0.46338,0.40723,0.40332,0.38135,0.43311,0.41113,0.39307,0.40137,0.41553,0.39551,0.35547,0.34277,0.35986,0.35986,0.30518,0.31055,0.38086,0.3833,0.32227,0.33936,0.30566,0.31396,0.29395,0.32178,0.30664,0.31348,0.34717,0.32715,0.31396,0.30615,0.30762,0.37695,0.29639,0.35352,0.29102,0.28857,0.26758,0.29297,0.27441,0.30078,0.35693,0.3252,0.28955,0.30713,0.33154,0.32178,0.29004,0.28662,0.27295,0.29004,0.3125,0.26074,0.32275,0.30078,0.2876,0.35205,0.40088,0.39746,0.34473,0.3252,0.4209,0.33838,0.36279,0.33154,0.28613,0.30566,0.34131,0.36035,0.34082,0.34229,0.2998,0.30127,0.32227,0.32422,0.37402,0.36963,0.37451,0.34424,0.32568,0.2998,0.33789,0.37256,0.3833,0.37646,0.35449,0.33887,0.33545,0.37061,0.33984,0.28027,0.27148,0.26221,0.25391,0.26074,0.30957,0.25049,0.25098,0.25098,0.29248,0.28906,0.31982,0.28955,0.25195,0.32715,0.28369,0.28906,0.28223,0.31396,0.27734,0.30615,0.26904,0.30469,0.29199,0.34277,0.31152,0.33398,0.36963,0.42383,0.41064,0.39893,0.29248,0.27441,0.24023,0.26514,0.26855,0.25439,0.23486,0.24609,0.24561,0.22803,0.22803,0.23779,0.22705,0.24316,0.23096,0.24902,0.22754,0.22852,0.23242,0.22754,0.22656,0.22168,0.22461,0.22607,0.22266,0.22461,0.22559,0.22949,0.23047,0.22705,0.229,0.22559,0.22607,0.22461,0.22803,0.22852,0.22998,0.2334,0.22705,0.22852,0.26367,0.23877,0.2373,0.22705,0.23047,0.22754,0.24756,0.24365,0.22607,0.23291,0.22656,0.22705,0.22314,0.22607,0.22217,0.21436,0.2124,0.2251,0.23242,0.23926,0.22754,0.2334,0.22803,0.22607,0.22656,0.22559,0.22852,0.22607,0.23047,0.22998,0.22803,0.22852,0.22461,0.23486,0.24609,0.23047,0.24121,0.22607,0.229,0.229,0.23486,0.22754,0.2334,0.24365,0.25635,0.23975,0.23389,0.22949,0.229,0.22803,0.22754,0.2334,0.23047,0.23047,0.24463,0.23828,0.24268,0.25293,0.23682,0.24268,0.23926,0.24414,0.24902,0.23096,0.22656,0.23291,0.22998,0.22852,0.229,0.22852,0.22852,0.22705,0.22852,0.22412,0.22607,0.21924,0.21338,0.22168,0.22021,0.22607,0.22559,0.22559,0.21436,0.21338,0.22461,0.21191,0.21094,0.21875,0.22363,0.22559,0.22607,0.22461,0.2251,0.22607,0.22412,0.22363,0.22607,0.22705,0.22217,0.22559,0.22412,0.22168,0.22314,0.21777,0.21924,0.22607,0.22461,0.22461
0.46729,0.47705,0.45508,0.46338,0.53223,0.5459,0.53516,0.49414,0.55078,0.55762,0.58301,0.56641,0.55078,0.48926,0.45215,0.45508,0.51074,0.53418,0.50781,0.46826,0.45752,0.50195,0.55957,0.55371,0.58301,0.55859,0.54199,0.55469,0.5459,0.5293,0.49023,0.50098,0.53955,0.51855,0.54883,0.57617,0.59473,0.57373,0.56738,0.48535,0.56055,0.57617,0.57422,0.56641,0.56396,0.58789,0.5957,0.5459,0.54102,0.58887,0.56494,0.57129,0.59473,0.59131,0.55518,0.54004,0.54834,0.49414,0.52197,0.50977,0.5293,0.52539,0.50781,0.54199,0.56738,0.51855,0.5249,0.52051,0.50977,0.46094,0.47314,0.51465,0.49072,0.5,0.50293,0.48682,0.4502,0.47461,0.49805,0.48926,0.45752,0.39502,0.38721,0.38574,0.43213,0.4541,0.48779,0.43555,0.45508,0.47461,0.42236,0.41553,0.42236,0.43408,0.4375,0.4248,0.45605,0.51172,0.47803,0.51465,0.51758,0.5166,0.47949,0.50977,0.54297,0.49365,0.46484,0.45459,0.39404,0.39844,0.4248,0.44141,0.42383,0.36523,0.38037,0.41406,0.3584,0.35693,0.3833,0.42871,0.42236,0.35889,0.41602,0.39014,0.3877,0.33594,0.36475,0.3457,0.40088,0.38232,0.34619,0.34717,0.31494,0.34424,0.3335,0.29199,0.30566,0.35254,0.3584,0.32031,0.36182,0.37695,0.38086,0.33154,0.30908,0.31592,0.33643,0.29541,0.29004,0.26123,0.29053,0.32764,0.30664,0.26611,0.2749,0.31006,0.28369,0.28076,0.25879,0.28467,0.30273,0.25879,0.28271,0.30762,0.33594,0.32129,0.40137,0.39941,0.41406,0.32812,0.32812,0.37451,0.35107,0.33691,0.33398,0.3125,0.35938,0.38965,0.31006,0.32129,0.28174,0.29004,0.3252,0.28662,0.29932,0.37793,0.34229,0.36914,0.3252,0.3125,0.3833,0.39941,0.38818,0.38867,0.35791,0.38135,0.34814,0.34912,0.35596,0.29785,0.30762,0.26318,0.27148,0.27197,0.26416,0.30664,0.31396,0.27686,0.25,0.2583,0.29102,0.30518,0.28418,0.26465,0.26611,0.34082,0.30957,0.28711,0.30664,0.29492,0.2998,0.2959,0.28564,0.33447,0.35205,0.29199,0.3833,0.38281,0.40918,0.38428,0.37402,0.3584,0.29541,0.25049,0.26172,0.28125,0.25635,0.23682,0.23779,0.24951,0.2666,0.2417,0.24463,0.22803,0.22803,0.23047,0.24219,0.23438,0.22998,0.23535,0.22852,0.22461,0.22705,0.22607,0.229,0.2251,0.22754,0.22656,0.22559,0.22852,0.2251,0.22607,0.22461,0.22656,0.23389,0.22754,0.2251,0.22803,0.22607,0.22949,0.22998,0.2417,0.24805,0.23975,0.229,0.23096,0.23047,0.23535,0.22852,0.22949,0.23486,0.22656,0.22217,0.22461,0.22119,0.21973,0.20654,0.22266,0.22607,0.22949,0.22754,0.24512,0.24121,0.22607,0.22607,0.22705,0.22656,0.23047,0.23291,0.23584,0.22754,0.23047,0.22949,0.22607,0.23438,0.24268,0.25049,0.23291,0.23486,0.23291,0.22754,0.23145,0.22949,0.23145,0.23242,0.25928,0.25977,0.23975,0.24805,0.22949,0.23047,0.23193,0.25342,0.24658,0.24414,0.23389,0.25195,0.24902,0.23682,0.24756,0.24316,0.23438,0.23584,0.24023,0.25,0.23242,0.2334,0.22607,0.2251,0.22705,0.2251,0.22656,0.22607,0.22607,0.22412,0.22412,0.22217,0.22021,0.21924,0.21826,0.22461,0.22754,0.22705,0.22266,0.22314,0.22168,0.22266,0.22119,0.2251,0.22217,0.22314,0.2251,0.22607,0.22412,0.22559,0.22314,0.22217,0.22754,0.22559,0.21875,0.21777,0.2251,0.22217,0.21484,0.2207,0.22314,0.22607,0.2251,0.22607
0.51074,0.48193,0.45361,0.50977,0.48145,0.56641,0.55713,0.5332,0.52734,0.5166,0.55762,0.52979,0.55762,0.52051,0.49951,0.49707,0.53076,0.54883,0.52979,0.479,0.5293,0.4707,0.51074,0.55859,0.5625,0.57129,0.58008,0.52441,0.50195,0.51465,0.51807,0.52832,0.55518,0.5498,0.55176,0.5752,0.60156,0.5498,0.50537,0.52734,0.50879,0.58105,0.57422,0.56836,0.56738,0.57812,0.5752,0.59668,0.5918,0.59033,0.59131,0.55176,0.55176,0.58398,0.53076,0.53125,0.56055,0.46973,0.49463,0.48047,0.52734,0.51465,0.55078,0.56934,0.53076,0.54834,0.55762,0.56543,0.49609,0.47607,0.48438,0.51953,0.54736,0.4668,0.45264,0.50781,0.42383,0.41699,0.52344,0.44189,0.49414,0.48828,0.44287,0.43359,0.42285,0.50781,0.47607,0.46338,0.45508,0.51221,0.42041,0.39062,0.41699,0.50195,0.48193,0.48193,0.46582,0.42725,0.49414,0.49414,0.44775,0.47705,0.43652,0.47949,0.48438,0.50879,0.47119,0.4292,0.46924,0.40723,0.4292,0.38135,0.42822,0.37305,0.41895,0.42725,0.36523,0.35742,0.43604,0.39355,0.38721,0.36963,0.35107,0.36621,0.38135,0.33447,0.30908,0.33936,0.375,0.39844,0.38574,0.41162,0.40234,0.36865,0.36426,0.32764,0.36914,0.38477,0.32227,0.31201,0.33105,0.30371,0.36768,0.3042,0.2998,0.34619,0.30664,0.31592,0.31836,0.26318,0.27832,0.31738,0.30811,0.28906,0.31006,0.34473,0.32129,0.26172,0.27441,0.2832,0.28906,0.26074,0.28516,0.30811,0.31152,0.35059,0.34082,0.39648,0.33447,0.32812,0.4248,0.34668,0.34717,0.40137,0.396,0.33105,0.33691,0.40283,0.396,0.33398,0.33398,0.33984,0.32275,0.26904,0.30615,0.32324,0.30322,0.33252,0.3335,0.40918,0.39453,0.42432,0.37402,0.42871,0.32861,0.41406,0.39062,0.37305,0.32031,0.34717,0.31689,0.28271,0.27295,0.30811,0.31738,0.31396,0.28516,0.29541,0.31592,0.25635,0.27783,0.31641,0.2832,0.29541,0.31152,0.35693,0.32959,0.31006,0.27588,0.30078,0.26709,0.30762,0.3125,0.29932,0.33057,0.28516,0.3125,0.3833,0.33838,0.35107,0.32568,0.40137,0.26611,0.2915,0.29688,0.28076,0.27002,0.22852,0.23779,0.23389,0.23047,0.25586,0.25488,0.24512,0.23438,0.23926,0.22949,0.24756,0.2334,0.25977,0.23438,0.22363,0.23193,0.22803,0.22705,0.22607,0.22705,0.22607,0.229,0.22852,0.23877,0.22656,0.22754,0.22607,0.22607,0.2251,0.22607,0.22754,0.23047,0.22949,0.26221,0.25244,0.23047,0.26123,0.2334,0.22754,0.22949,0.24268,0.23291,0.22607,0.22656,0.22461,0.22559,0.21338,0.22363,0.22412,0.22656,0.22607,0.22656,0.22949,0.23047,0.24805,0.22998,0.23584,0.22656,0.22656,0.22949,0.2373,0.22754,0.22754,0.23584,0.22803,0.23047,0.23193,0.24268,0.24268,0.24121,0.24072,0.2417,0.23145,0.22705,0.24268,0.23926,0.23486,0.24561,0.2627,0.25537,0.2373,0.25391,0.24365,0.25195,0.24072,0.26904,0.28027,0.2417,0.26611,0.25195,0.25635,0.23193,0.23486,0.23535,0.24658,0.22852,0.23193,0.22803,0.22949,0.22803,0.23242,0.23145,0.22607,0.22705,0.22607,0.22754,0.22607,0.22754,0.2251,0.22021,0.21436,0.22314,0.22461,0.22461,0.22607,0.22705,0.22266,0.22412,0.22412,0.22559,0.22168,0.2207,0.22559,0.22412,0.22363,0.22607,0.22412,0.22607,0.22607,0.2251,0.22607,0.22363,0.21924,0.21777,0.22021,0.21533,0.21289,0.21729,0.22119,0.22363,0.22607,0.22754
0.57031,0.53516,0.50879,0.479,0.50098,0.53125,0.52637,0.51465,0.49072,0.50977,0.5293,0.54639,0.55762,0.52246,0.521,0.50781,0.52051,0.54199,0.48682,0.49951,0.48047,0.50391,0.48828,0.5498,0.52246,0.5498,0.56934,0.55078,0.57129,0.52246,0.53711,0.53076,0.53418,0.54199,0.57373,0.57617,0.55469,0.57373,0.55518,0.49561,0.55273,0.53857,0.55469,0.56641,0.56543,0.5625,0.57715,0.58936,0.56641,0.5459,0.52051,0.54834,0.52637,0.52637,0.55518,0.55273,0.57031,0.52539,0.50391,0.48047,0.5,0.52539,0.56396,0.55518,0.57715,0.57373,0.53711,0.53857,0.49854,0.48682,0.5332,0.50928,0.46826,0.48535,0.41602,0.43457,0.44141,0.45605,0.43018,0.49561,0.5376,0.49854,0.41455,0.41895,0.43457,0.46436,0.44141,0.50781,0.4917,0.48535,0.46484,0.41162,0.45361,0.50195,0.46094,0.51465,0.46826,0.43945,0.46582,0.45703,0.42578,0.41016,0.4375,0.44922,0.44336,0.47949,0.46338,0.47949,0.46826,0.39795,0.41602,0.39453,0.38379,0.40918,0.41211,0.35693,0.39893,0.39941,0.41602,0.43555,0.39404,0.40674,0.44141,0.42139,0.35547,0.34326,0.38037,0.3418,0.31738,0.34717,0.35547,0.41602,0.41846,0.38965,0.3291,0.3501,0.33252,0.33398,0.40381,0.37793,0.31348,0.30713,0.30859,0.30566,0.28809,0.33398,0.29883,0.28711,0.3335,0.30078,0.28711,0.27051,0.28223,0.28125,0.30518,0.31689,0.26758,0.28662,0.29199,0.2876,0.26514,0.27393,0.25586,0.271,0.33252,0.32959,0.35938,0.33057,0.39844,0.41016,0.41504,0.41602,0.45947,0.42383,0.40918,0.37695,0.41602,0.37207,0.35352,0.32568,0.38428,0.36865,0.30762,0.31152,0.27588,0.29541,0.28174,0.33154,0.35791,0.43018,0.39551,0.42041,0.40186,0.38721,0.34521,0.35791,0.38623,0.38623,0.3208,0.3291,0.33057,0.28223,0.32227,0.2998,0.35742,0.33252,0.30176,0.32959,0.27246,0.27295,0.27393,0.25928,0.26611,0.32129,0.38135,0.34521,0.37646,0.31689,0.30273,0.30371,0.26562,0.28174,0.32568,0.31348,0.26562,0.28467,0.29688,0.33008,0.3252,0.33691,0.34229,0.34619,0.2998,0.26611,0.29199,0.25879,0.23389,0.23779,0.22803,0.23779,0.23193,0.2417,0.24316,0.23828,0.24609,0.23145,0.24121,0.23926,0.22852,0.23926,0.22656,0.22705,0.22803,0.22998,0.22852,0.23242,0.22607,0.22705,0.22656,0.22998,0.22656,0.23389,0.23633,0.22998,0.23096,0.22607,0.22803,0.22949,0.23682,0.25195,0.26074,0.24316,0.23828,0.24219,0.23926,0.23145,0.22852,0.229,0.23047,0.22461,0.2124,0.21094,0.20947,0.21777,0.21875,0.22607,0.22656,0.23291,0.24219,0.23047,0.22949,0.23633,0.24512,0.24365,0.23193,0.23291,0.24512,0.23486,0.23877,0.22949,0.23096,0.23926,0.23486,0.23633,0.24805,0.25635,0.2417,0.26611,0.25586,0.23047,0.23633,0.23242,0.2373,0.26074,0.25781,0.28809,0.28711,0.24951,0.23926,0.24707,0.24219,0.25391,0.24609,0.26758,0.26123,0.27295,0.25244,0.23535,0.22949,0.23438,0.24658,0.23242,0.24707,0.23584,0.23193,0.22998,0.22607,0.22852,0.23389,0.22803,0.23193,0.22754,0.23486,0.23389,0.23193,0.22559,0.21875,0.21484,0.22461,0.22607,0.22705,0.22607,0.22607,0.22607,0.22852,0.22607,0.22412,0.22607,0.22705,0.22559,0.22217,0.2251,0.22705,0.22607,0.22998,0.22607,0.22412,0.22607,0.22607,0.22119,0.21191,0.22217,0.22412,0.21924,0.2168,0.22461,0.22363,0.2251,0.22607
0.57422,0.55371,0.5332,0.47803,0.48535,0.48584,0.54834,0.53613,0.48926,0.52832,0.5376,0.53516,0.52686,0.50098,0.51074,0.48047,0.51465,0.51465,0.52441,0.48828,0.45947,0.50684,0.48047,0.56152,0.56494,0.56738,0.53076,0.54736,0.55957,0.56738,0.5293,0.50098,0.48828,0.5376,0.53418,0.57715,0.58398,0.5249,0.54004,0.47119,0.52246,0.52734,0.53955,0.57373,0.5332,0.57275,0.59131,0.56934,0.56836,0.59131,0.5459,0.52441,0.52344,0.53857,0.51807,0.5376,0.50781,0.54297,0.54004,0.49854,0.54199,0.5293,0.5459,0.54492,0.58105,0.55078,0.5332,0.5459,0.53955,0.52051,0.51367,0.47803,0.51758,0.44043,0.48779,0.39258,0.47949,0.49707,0.43896,0.54736,0.45898,0.49365,0.49561,0.46094,0.43994,0.53857,0.479,0.49756,0.51758,0.52686,0.49023,0.35938,0.44043,0.44043,0.51367,0.55371,0.50537,0.44775,0.44385,0.52686,0.49561,0.51611,0.45264,0.50684,0.45947,0.50391,0.44629,0.48584,0.47412,0.43213,0.37842,0.3667,0.43848,0.45361,0.39258,0.39941,0.38574,0.36768,0.38965,0.40527,0.43848,0.43555,0.37061,0.38721,0.36133,0.38184,0.35986,0.35693,0.375,0.3501,0.37891,0.41455,0.36426,0.41406,0.4043,0.32812,0.34912,0.38477,0.37695,0.38721,0.33887,0.33545,0.34473,0.28711,0.28125,0.38086,0.35205,0.30225,0.29834,0.35254,0.26074,0.25146,0.27881,0.26514,0.3125,0.35352,0.32715,0.31836,0.30908,0.32666,0.27588,0.30566,0.31152,0.31104,0.32715,0.33496,0.33301,0.32617,0.3833,0.41211,0.41553,0.36035,0.38086,0.34424,0.36768,0.33838,0.3999,0.37646,0.3833,0.30371,0.40234,0.35107,0.4043,0.36816,0.35986,0.33887,0.36133,0.31641,0.40723,0.38135,0.4624,0.40283,0.4707,0.4375,0.3374,0.34863,0.4209,0.34912,0.37695,0.33496,0.34082,0.34473,0.32715,0.34912,0.30811,0.30273,0.26514,0.31836,0.25342,0.25879,0.25781,0.24316,0.26074,0.30957,0.28662,0.31348,0.29053,0.27979,0.29443,0.3042,0.30371,0.26514,0.27539,0.37451,0.28516,0.31201,0.29688,0.38135,0.3877,0.38232,0.30469,0.31934,0.2998,0.30713,0.30859,0.25,0.25635,0.25146,0.26953,0.22803,0.23877,0.24365,0.23486,0.22998,0.23438,0.23682,0.23047,0.22705,0.24512,0.23047,0.23975,0.229,0.22656,0.22998,0.23291,0.22607,0.23096,0.23633,0.23047,0.23047,0.2373,0.23584,0.25146,0.23486,0.23389,0.22705,0.23242,0.229,0.23242,0.27344,0.24414,0.24268,0.23926,0.23242,0.2373,0.22803,0.22559,0.23047,0.22559,0.22266,0.20898,0.2251,0.22217,0.22119,0.21777,0.22998,0.23047,0.2373,0.22607,0.23389,0.22852,0.23291,0.2334,0.24561,0.23096,0.24316,0.23242,0.23926,0.22607,0.22998,0.23242,0.24268,0.2583,0.23389,0.24707,0.24561,0.26514,0.27539,0.28174,0.25635,0.23438,0.25928,0.27783,0.30078,0.26025,0.28418,0.28174,0.28906,0.25537,0.28027,0.24072,0.27441,0.24072,0.26562,0.28125,0.29736,0.27637,0.23389,0.23291,0.24072,0.23438,0.24658,0.24658,0.24365,0.22803,0.24023,0.23682,0.2417,0.22852,0.23291,0.22803,0.23633,0.23438,0.23682,0.22705,0.22656,0.22314,0.22168,0.22021,0.22607,0.22461,0.22656,0.22656,0.22754,0.22656,0.22559,0.22412,0.22363,0.22314,0.22607,0.22217,0.22217,0.22461,0.22607,0.22461,0.22656,0.22412,0.22607,0.22021,0.22363,0.21875,0.22168,0.22217,0.22363,0.22559,0.22314,0.2251,0.22607,0.23193
0.55713,0.57812,0.58252,0.53711,0.47119,0.47559,0.5293,0.54102,0.50098,0.50098,0.53711,0.51953,0.50781,0.5,0.53223,0.51562,0.50586,0.47461,0.53857,0.53516,0.53125,0.47266,0.5166,0.52246,0.52539,0.51465,0.49707,0.53076,0.5293,0.5498,0.48047,0.48047,0.46338,0.50977,0.54004,0.58105,0.56055,0.52734,0.49951,0.50342,0.5166,0.55176,0.56055,0.56641,0.54883,0.54199,0.56641,0.5791,0.56738,0.57275,0.53223,0.53516,0.51221,0.53711,0.51367,0.54199,0.52686,0.5166,0.47949,0.52344,0.49365,0.53711,0.57275,0.58301,0.56641,0.56396,0.50293,0.51953,0.54834,0.57031,0.49609,0.50098,0.50781,0.47412,0.41211,0.42285,0.46484,0.49414,0.4707,0.50342,0.45508,0.48145,0.40088,0.4248,0.45703,0.52051,0.5625,0.55615,0.54883,0.52637,0.4458,0.38965,0.45117,0.43945,0.49561,0.51611,0.53516,0.46777,0.54395,0.53418,0.56396,0.54883,0.51074,0.49365,0.54199,0.51367,0.51807,0.47705,0.40381,0.41309,0.42334,0.39551,0.43359,0.42041,0.41016,0.42578,0.45703,0.40039,0.4248,0.41553,0.43115,0.42285,0.4165,0.40039,0.44043,0.39404,0.40918,0.44775,0.39844,0.40723,0.37305,0.38379,0.44531,0.43701,0.37549,0.38184,0.33643,0.36426,0.354,0.32812,0.34961,0.38672,0.32812,0.28809,0.32715,0.32959,0.37158,0.3252,0.29736,0.34277,0.27588,0.2627,0.25879,0.26807,0.28125,0.31592,0.30371,0.29346,0.28613,0.30225,0.30029,0.31836,0.30322,0.29346,0.29785,0.3042,0.30811,0.35107,0.32031,0.38428,0.34473,0.35352,0.33447,0.34082,0.39893,0.36426,0.40479,0.37695,0.38721,0.37061,0.43896,0.39844,0.39844,0.38916,0.37988,0.37305,0.41943,0.36426,0.32031,0.36426,0.42725,0.47412,0.45898,0.39941,0.40918,0.41113,0.43506,0.34717,0.29004,0.30176,0.35547,0.33545,0.33936,0.3125,0.2666,0.27295,0.24902,0.27246,0.29248,0.26221,0.29346,0.26562,0.271,0.25635,0.25732,0.33496,0.34229,0.29639,0.28809,0.3125,0.2876,0.29053,0.32471,0.37158,0.30029,0.30713,0.38184,0.37988,0.3374,0.33252,0.27734,0.28809,0.26123,0.30176,0.28027,0.27734,0.31738,0.30176,0.26074,0.23145,0.23438,0.25537,0.24805,0.23975,0.22803,0.22949,0.23535,0.22998,0.25049,0.23877,0.23193,0.22607,0.22656,0.23047,0.23047,0.22754,0.24072,0.24561,0.24072,0.25732,0.28369,0.25684,0.25879,0.25049,0.23779,0.23877,0.26074,0.24414,0.25635,0.24805,0.23828,0.22852,0.229,0.22998,0.229,0.22607,0.22705,0.22656,0.22266,0.21826,0.22461,0.22461,0.2251,0.21875,0.22559,0.22607,0.22559,0.22607,0.22412,0.22656,0.22949,0.24316,0.23242,0.23486,0.25,0.24951,0.24756,0.23047,0.22607,0.22803,0.22803,0.23584,0.24463,0.26074,0.26074,0.27637,0.25098,0.26514,0.28369,0.2749,0.26465,0.25879,0.26855,0.26953,0.32568,0.30811,0.29443,0.27637,0.27344,0.27686,0.2627,0.25195,0.25781,0.2666,0.25391,0.28271,0.27393,0.24121,0.2583,0.24658,0.24268,0.23438,0.24219,0.23242,0.229,0.23096,0.24268,0.23486,0.23633,0.23975,0.23584,0.23486,0.24609,0.23291,0.22998,0.22314,0.22314,0.21094,0.21729,0.22314,0.22559,0.22754,0.22559,0.22705,0.22852,0.22607,0.22461,0.22607,0.22705,0.2251,0.22119,0.22412,0.22705,0.22705,0.22607,0.22559,0.22461,0.22607,0.22363,0.22461,0.22168,0.22119,0.22217,0.22607,0.22998,0.22656,0.229,0.23486,0.23291
0.57129,0.55957,0.54004,0.58105,0.48047,0.50391,0.52979,0.5498,0.55859,0.48291,0.52734,0.47412,0.46484,0.49463,0.52344,0.52051,0.49756,0.45215,0.52686,0.52051,0.47656,0.44141,0.48047,0.49854,0.55176,0.5625,0.50098,0.52441,0.51367,0.51611,0.49561,0.47559,0.48047,0.51807,0.53418,0.54883,0.58594,0.5376,0.52344,0.53516,0.48926,0.56738,0.56934,0.57275,0.54395,0.52686,0.57275,0.58154,0.59814,0.57373,0.55957,0.59131,0.54004,0.58105,0.59277,0.50977,0.50879,0.48926,0.51611,0.51172,0.49414,0.54004,0.50781,0.54004,0.58496,0.58252,0.53125,0.51074,0.55957,0.55859,0.54736,0.52832,0.48486,0.46582,0.47461,0.48438,0.45605,0.47314,0.55273,0.50879,0.53418,0.52051,0.47461,0.45508,0.55176,0.53125,0.54736,0.5332,0.49609,0.55762,0.49609,0.45508,0.42041,0.48926,0.43555,0.47656,0.47949,0.44434,0.53711,0.50781,0.52344,0.53711,0.53516,0.55762,0.55176,0.55615,0.54199,0.4834,0.46973,0.39697,0.41113,0.38965,0.42822,0.37988,0.45508,0.45752,0.43799,0.42529,0.46191,0.46924,0.39111,0.43213,0.4585,0.40137,0.44531,0.39941,0.39014,0.4624,0.46826,0.49023,0.44189,0.37695,0.43115,0.45117,0.43311,0.36035,0.38623,0.38525,0.35205,0.30713,0.39258,0.3501,0.36279,0.30664,0.2998,0.40576,0.34717,0.36914,0.31836,0.32959,0.30811,0.30078,0.26123,0.27246,0.27686,0.31592,0.32568,0.29004,0.30566,0.30469,0.29346,0.30566,0.34375,0.25488,0.27197,0.27686,0.35156,0.30127,0.29492,0.31201,0.31494,0.32959,0.33789,0.33789,0.35645,0.38379,0.33643,0.38916,0.34863,0.37402,0.40625,0.39844,0.42529,0.42773,0.35645,0.41992,0.34619,0.34277,0.38135,0.37891,0.37744,0.49805,0.4502,0.37695,0.35449,0.39014,0.42285,0.3833,0.31934,0.35156,0.41309,0.4209,0.37793,0.31445,0.33496,0.26074,0.31787,0.25684,0.25244,0.29346,0.29541,0.26953,0.26953,0.30127,0.271,0.35645,0.32422,0.32422,0.29297,0.36426,0.35986,0.27393,0.35303,0.32324,0.29199,0.27734,0.33838,0.38623,0.37061,0.28271,0.33057,0.28174,0.32031,0.31494,0.29541,0.26514,0.30371,0.28027,0.23486,0.23486,0.24561,0.26855,0.24414,0.27539,0.23926,0.23291,0.22607,0.22656,0.22998,0.23047,0.22803,0.22559,0.22559,0.22607,0.22607,0.22949,0.22803,0.25342,0.23486,0.24268,0.24463,0.26514,0.24268,0.27344,0.24463,0.25879,0.23486,0.23438,0.24316,0.27539,0.23486,0.24268,0.23486,0.23486,0.22803,0.229,0.22607,0.23193,0.22607,0.22607,0.22705,0.22949,0.22021,0.22217,0.2251,0.22607,0.22754,0.229,0.22559,0.22949,0.22949,0.23584,0.25635,0.25732,0.24316,0.27246,0.25244,0.24316,0.22705,0.23584,0.23096,0.26025,0.24072,0.27002,0.26904,0.28223,0.24414,0.26318,0.24609,0.29736,0.27393,0.27588,0.26367,0.27295,0.26416,0.27393,0.32764,0.2832,0.26367,0.26953,0.27051,0.28418,0.28467,0.28662,0.25635,0.25195,0.24219,0.2373,0.23486,0.23828,0.2417,0.22852,0.2334,0.23096,0.23438,0.23584,0.23486,0.24854,0.2373,0.26025,0.23242,0.23682,0.23047,0.23096,0.22607,0.2251,0.22607,0.21729,0.22559,0.22656,0.22314,0.22656,0.22852,0.23047,0.22559,0.22363,0.22559,0.22803,0.22559,0.22607,0.2251,0.22607,0.22754,0.22607,0.22461,0.22607,0.229,0.22607,0.22607,0.22559,0.22607,0.22217,0.22656,0.22607,0.22607,0.23193,0.23242,0.22754,0.22705
0.55371,0.53857,0.56494,0.54883,0.52246,0.50586,0.54492,0.5376,0.55469,0.53125,0.45508,0.45947,0.45703,0.52051,0.55518,0.53125,0.52979,0.48828,0.46973,0.50342,0.49219,0.49414,0.52637,0.52686,0.50488,0.55518,0.56641,0.50879,0.521,0.51172,0.53223,0.50342,0.5332,0.52441,0.52441,0.54736,0.58301,0.55273,0.55273,0.51074,0.5249,0.53223,0.54395,0.51221,0.49609,0.55176,0.59912,0.5918,0.56934,0.5918,0.59033,0.59131,0.60938,0.59766,0.55518,0.55518,0.53418,0.48926,0.50684,0.49756,0.45605,0.47461,0.51367,0.55469,0.55957,0.59375,0.5498,0.56738,0.5498,0.51562,0.51221,0.51953,0.47656,0.45361,0.41846,0.46777,0.45752,0.51758,0.56055,0.54834,0.48047,0.48291,0.5166,0.51074,0.49805,0.56934,0.5332,0.53711,0.49023,0.5166,0.44385,0.44238,0.52441,0.49951,0.44629,0.47656,0.48438,0.45996,0.54883,0.54395,0.55518,0.50488,0.55713,0.54395,0.58301,0.54883,0.54004,0.4624,0.43359,0.38135,0.42041,0.39893,0.42529,0.37695,0.44922,0.44678,0.46338,0.45117,0.49756,0.45898,0.40283,0.41699,0.40283,0.46094,0.42529,0.44141,0.43311,0.45898,0.42871,0.47705,0.48486,0.4248,0.44775,0.3833,0.34961,0.37793,0.3374,0.37598,0.36377,0.35986,0.37646,0.37793,0.38379,0.35059,0.38379,0.40723,0.36426,0.36279,0.29395,0.30322,0.31787,0.2959,0.32227,0.2749,0.26758,0.30615,0.28613,0.30078,0.29785,0.34277,0.3501,0.32764,0.32031,0.2749,0.32861,0.30615,0.33984,0.3042,0.35107,0.30859,0.31592,0.36133,0.34229,0.32959,0.35107,0.36475,0.34375,0.33643,0.32227,0.38574,0.35938,0.42188,0.38867,0.36963,0.39502,0.38232,0.36426,0.39893,0.40869,0.42529,0.48047,0.44189,0.38184,0.38623,0.44873,0.40137,0.4668,0.44873,0.3877,0.37451,0.37939,0.44336,0.44678,0.37793,0.33301,0.29297,0.27686,0.26855,0.29053,0.27441,0.24365,0.25195,0.25635,0.27686,0.26709,0.28955,0.30029,0.32422,0.33545,0.39453,0.40039,0.31689,0.32227,0.3291,0.30371,0.31299,0.2998,0.34619,0.32715,0.28125,0.27393,0.29346,0.30469,0.32812,0.28662,0.33252,0.31201,0.25342,0.2417,0.25195,0.27588,0.24609,0.28467,0.26221,0.24268,0.23047,0.22754,0.22754,0.22754,0.22607,0.23047,0.22754,0.23389,0.23193,0.22754,0.22852,0.23047,0.23242,0.23096,0.25244,0.26709,0.29199,0.30957,0.26514,0.27881,0.25244,0.27002,0.24707,0.25879,0.26758,0.24072,0.23584,0.23584,0.23438,0.22607,0.22705,0.22803,0.23047,0.22559,0.2251,0.22461,0.22852,0.22607,0.22607,0.22363,0.22754,0.229,0.23242,0.22656,0.22705,0.23145,0.23291,0.24268,0.24561,0.24072,0.24365,0.23535,0.24756,0.25,0.2334,0.23047,0.24365,0.23486,0.25391,0.24072,0.24707,0.27588,0.2627,0.26123,0.25781,0.26562,0.24658,0.25488,0.24365,0.27783,0.27979,0.27539,0.29541,0.27002,0.30811,0.26904,0.27734,0.25146,0.26416,0.24756,0.25391,0.26123,0.26416,0.25098,0.23877,0.24561,0.23145,0.25146,0.24707,0.26562,0.24414,0.23975,0.24316,0.24902,0.24609,0.24023,0.24023,0.24561,0.22949,0.22607,0.22607,0.22607,0.2251,0.2251,0.22607,0.22559,0.22607,0.22607,0.22607,0.22461,0.22461,0.22607,0.22607,0.22656,0.22412,0.22607,0.22607,0.22461,0.2251,0.22607,0.22705,0.229,0.22754,0.22803,0.22607,0.22607,0.22607,0.22998,0.22656,0.23096,0.22803,0.22998,0.23047,0.22949
0.5752,0.5918,0.55762,0.59668,0.54834,0.5332,0.56641,0.52979,0.56396,0.48926,0.4668,0.4585,0.50781,0.50977,0.49316,0.55713,0.50879,0.48682,0.54883,0.51562,0.5332,0.53711,0.49561,0.50586,0.53076,0.55078,0.5459,0.50293,0.48145,0.53516,0.49316,0.55273,0.49463,0.50391,0.52734,0.57715,0.5249,0.58105,0.53516,0.51074,0.52979,0.51172,0.50195,0.53076,0.56396,0.53955,0.58887,0.5918,0.59131,0.58301,0.5625,0.54395,0.55273,0.60547,0.53857,0.55273,0.55859,0.47119,0.48682,0.51074,0.52734,0.46826,0.50977,0.55859,0.57715,0.58594,0.55957,0.5625,0.55859,0.47656,0.50391,0.54102,0.47412,0.45117,0.49463,0.42383,0.47266,0.50879,0.56738,0.55469,0.48486,0.49365,0.54004,0.49609,0.55762,0.53711,0.50342,0.52539,0.50781,0.53613,0.5166,0.43066,0.48535,0.54736,0.51318,0.43701,0.4917,0.47119,0.50684,0.55713,0.56055,0.52344,0.49756,0.50293,0.49463,0.49365,0.43506,0.43311,0.39062,0.41699,0.43262,0.40576,0.43945,0.41406,0.41895,0.44531,0.48828,0.4834,0.4834,0.48535,0.42822,0.43945,0.42285,0.47119,0.46729,0.46436,0.48779,0.45264,0.41895,0.44189,0.45752,0.41064,0.41064,0.39941,0.38379,0.42432,0.39453,0.37158,0.42627,0.38281,0.34082,0.40332,0.37354,0.33301,0.38379,0.41162,0.34912,0.31982,0.3501,0.29785,0.27734,0.29932,0.32129,0.28369,0.30469,0.32715,0.31152,0.3208,0.32129,0.31934,0.33838,0.28223,0.26074,0.29932,0.25,0.25537,0.30322,0.25928,0.26074,0.31494,0.34863,0.29199,0.2876,0.36426,0.39648,0.3418,0.3833,0.3877,0.40576,0.4375,0.37451,0.35791,0.37109,0.32324,0.39697,0.35986,0.35205,0.41504,0.4375,0.41064,0.38184,0.40283,0.40283,0.44922,0.36768,0.40283,0.42236,0.41602,0.45459,0.34521,0.42969,0.41602,0.4248,0.40234,0.33643,0.30615,0.26953,0.24219,0.25732,0.2793,0.25146,0.26221,0.28857,0.32227,0.26514,0.29395,0.27686,0.35498,0.37402,0.40088,0.34424,0.41064,0.31396,0.32373,0.38037,0.31934,0.30566,0.35791,0.37158,0.30908,0.34082,0.31982,0.31641,0.35449,0.33984,0.35107,0.31787,0.26514,0.25537,0.23877,0.30273,0.31592,0.28223,0.25195,0.24316,0.24463,0.24072,0.22656,0.22754,0.2251,0.23535,0.22852,0.24219,0.25928,0.23633,0.2373,0.25684,0.2334,0.23047,0.23047,0.27197,0.3208,0.25684,0.29834,0.25732,0.27881,0.2583,0.24902,0.24072,0.25146,0.23486,0.22803,0.22705,0.22705,0.22607,0.22607,0.23193,0.24365,0.22461,0.22559,0.22461,0.22656,0.229,0.22559,0.22607,0.23047,0.22607,0.22607,0.23438,0.229,0.24023,0.22852,0.229,0.23486,0.24951,0.23193,0.23779,0.25195,0.23389,0.25781,0.23779,0.24805,0.25244,0.26172,0.26465,0.23486,0.24072,0.27637,0.24365,0.24756,0.23535,0.23047,0.25879,0.25488,0.24854,0.24951,0.29395,0.33496,0.33545,0.31885,0.29248,0.28906,0.26855,0.24414,0.27734,0.2417,0.26855,0.29639,0.25439,0.25195,0.23438,0.2334,0.23096,0.24316,0.26416,0.2373,0.26025,0.24072,0.26172,0.2373,0.25098,0.24512,0.2373,0.23096,0.22607,0.22705,0.22363,0.22314,0.22217,0.22754,0.22754,0.22656,0.22754,0.22559,0.22217,0.2168,0.22461,0.22705,0.22559,0.2251,0.21533,0.22656,0.22314,0.22607,0.22607,0.22607,0.22607,0.22559,0.22852,0.22607,0.22656,0.23438,0.22705,0.22656,0.22607,0.22705,0.23047,0.23535,0.23633
0.59277,0.60352,0.5752,0.5918,0.59766,0.58887,0.58154,0.57129,0.51318,0.49463,0.45508,0.45508,0.45264,0.49951,0.53076,0.52197,0.50293,0.53223,0.47949,0.51807,0.50098,0.53857,0.55518,0.5249,0.46338,0.47803,0.479,0.50195,0.50684,0.52051,0.55371,0.53076,0.5293,0.49805,0.57031,0.58008,0.56152,0.56738,0.54199,0.5332,0.51074,0.50781,0.50488,0.54736,0.58691,0.58789,0.55615,0.55518,0.60693,0.59277,0.55518,0.54639,0.59375,0.58887,0.57275,0.5249,0.5249,0.51221,0.49414,0.48145,0.5332,0.52832,0.50879,0.5293,0.58252,0.58105,0.56836,0.56641,0.56152,0.52344,0.48584,0.48193,0.49561,0.44678,0.42773,0.42578,0.48779,0.49463,0.52051,0.5376,0.53857,0.46973,0.4917,0.52832,0.55273,0.54736,0.51367,0.4248,0.45459,0.48828,0.47266,0.42529,0.43848,0.52734,0.49219,0.45361,0.51562,0.54102,0.52051,0.50293,0.52979,0.57031,0.50977,0.53418,0.5332,0.47705,0.46973,0.40723,0.43457,0.50342,0.4917,0.39502,0.47314,0.45996,0.45361,0.39795,0.42676,0.51221,0.5332,0.5332,0.52539,0.47314,0.44873,0.40283,0.40039,0.47412,0.40137,0.41357,0.46777,0.43408,0.38965,0.40771,0.40381,0.44043,0.41992,0.44629,0.43652,0.41699,0.38916,0.42041,0.41943,0.37256,0.41357,0.39355,0.3999,0.37695,0.34326,0.32227,0.28418,0.31738,0.30078,0.34082,0.35449,0.29492,0.2876,0.33252,0.32715,0.30273,0.32324,0.33105,0.2793,0.30127,0.25635,0.25928,0.24072,0.25439,0.28662,0.26807,0.25049,0.27783,0.2832,0.27686,0.32031,0.35791,0.34375,0.37598,0.42285,0.39502,0.4292,0.3877,0.38721,0.32178,0.34521,0.31055,0.31738,0.35547,0.41992,0.39746,0.41699,0.38477,0.33838,0.38232,0.43359,0.39551,0.38721,0.44678,0.48193,0.46191,0.4126,0.34961,0.38086,0.38623,0.37939,0.38965,0.33398,0.2876,0.25928,0.25879,0.2832,0.2793,0.27393,0.24268,0.27637,0.2998,0.28711,0.32715,0.28711,0.31152,0.33203,0.33447,0.33496,0.4165,0.36182,0.34619,0.34473,0.43555,0.33838,0.3374,0.37402,0.35107,0.37793,0.36279,0.31982,0.32129,0.40918,0.40674,0.3623,0.28662,0.27197,0.26514,0.31348,0.30811,0.30371,0.26465,0.31201,0.28467,0.2749,0.24072,0.23047,0.22754,0.22754,0.23486,0.23193,0.24707,0.24951,0.24805,0.26855,0.25879,0.24365,0.23486,0.25146,0.27197,0.30811,0.27832,0.28857,0.28125,0.28809,0.24561,0.24365,0.24609,0.23193,0.229,0.23145,0.22949,0.22949,0.22607,0.2373,0.23389,0.23193,0.22412,0.22607,0.22803,0.22607,0.22559,0.22803,0.22754,0.22607,0.22705,0.24072,0.23926,0.23682,0.23242,0.24561,0.23193,0.24707,0.24512,0.26611,0.25293,0.28076,0.25439,0.23291,0.23242,0.23486,0.23633,0.25146,0.24561,0.2627,0.26855,0.26172,0.25439,0.24121,0.23584,0.25488,0.28223,0.27979,0.25391,0.29346,0.32861,0.33154,0.28027,0.2793,0.25635,0.28076,0.2666,0.27783,0.25244,0.28809,0.2876,0.27881,0.26465,0.26904,0.24463,0.24414,0.25195,0.27881,0.2627,0.29102,0.27295,0.27783,0.25391,0.23145,0.23047,0.23486,0.23486,0.22803,0.22656,0.22559,0.22266,0.22559,0.22559,0.22559,0.22998,0.22607,0.22607,0.22217,0.21973,0.2251,0.22607,0.22412,0.21777,0.2207,0.22217,0.2124,0.22217,0.22607,0.22852,0.22607,0.2251,0.22266,0.22607,0.22607,0.23047,0.23389,0.22607,0.23291,0.22998,0.23535,0.22949,0.23926
0.56543,0.55957,0.56934,0.60693,0.58936,0.59766,0.54883,0.55615,0.52441,0.50488,0.479,0.46338,0.4668,0.47314,0.46582,0.51465,0.52539,0.48291,0.48584,0.4917,0.51074,0.56055,0.53857,0.54736,0.52686,0.48047,0.48047,0.52734,0.47559,0.47412,0.54199,0.48047,0.5293,0.4917,0.51807,0.57227,0.54102,0.55615,0.57031,0.53223,0.5376,0.53711,0.55713,0.55518,0.53516,0.55371,0.55176,0.55176,0.55518,0.57373,0.60449,0.57812,0.57275,0.60547,0.58252,0.5376,0.51807,0.53516,0.56055,0.50195,0.48926,0.56494,0.53711,0.55713,0.5957,0.6167,0.5918,0.55859,0.55957,0.52051,0.45703,0.51367,0.4707,0.41895,0.4668,0.44678,0.41064,0.41553,0.45117,0.4585,0.51465,0.49219,0.54492,0.49561,0.49854,0.5625,0.44434,0.41602,0.37402,0.49414,0.41211,0.47266,0.5166,0.52734,0.53076,0.48047,0.54639,0.57031,0.5376,0.521,0.51953,0.58252,0.50391,0.53223,0.48291,0.48535,0.42041,0.41504,0.39893,0.46777,0.42725,0.46484,0.4458,0.43213,0.41602,0.38574,0.41699,0.49414,0.52246,0.55762,0.45752,0.479,0.42871,0.39453,0.40723,0.46777,0.46729,0.42773,0.47266,0.43311,0.38818,0.43652,0.47217,0.48535,0.42871,0.42627,0.42383,0.4375,0.3833,0.41797,0.37305,0.40771,0.43848,0.35449,0.36279,0.4126,0.39551,0.34277,0.30371,0.29736,0.354,0.2998,0.35645,0.2998,0.31934,0.32422,0.29297,0.28516,0.29639,0.32129,0.26562,0.3125,0.25195,0.28662,0.26807,0.29688,0.26758,0.26318,0.26025,0.24463,0.30176,0.30322,0.29736,0.30713,0.30762,0.40918,0.37109,0.34961,0.39795,0.3623,0.3125,0.37305,0.32422,0.30273,0.33447,0.34424,0.35107,0.39502,0.32764,0.3252,0.40674,0.38965,0.4082,0.46826,0.41211,0.48584,0.42334,0.49316,0.35791,0.34717,0.41162,0.39404,0.39893,0.34082,0.30811,0.26758,0.31836,0.29102,0.30469,0.29785,0.28906,0.2583,0.23926,0.27783,0.26514,0.3125,0.32568,0.30762,0.33398,0.3125,0.3252,0.42236,0.36816,0.34766,0.35205,0.47949,0.39941,0.3501,0.32129,0.30273,0.36816,0.32031,0.32324,0.33789,0.35693,0.44238,0.33496,0.26709,0.30859,0.25684,0.32031,0.3252,0.27246,0.271,0.25684,0.31836,0.25342,0.26025,0.25391,0.23096,0.229,0.23486,0.2417,0.23535,0.25293,0.23535,0.24414,0.25635,0.23096,0.22705,0.25,0.24561,0.27783,0.25879,0.24463,0.25781,0.28711,0.23779,0.24072,0.23486,0.23438,0.22949,0.22656,0.22852,0.23486,0.22852,0.23145,0.23926,0.22607,0.2334,0.22607,0.22754,0.22607,0.22754,0.22559,0.22998,0.22998,0.22607,0.22461,0.22607,0.23145,0.2373,0.23193,0.23438,0.22754,0.23047,0.27051,0.27539,0.24951,0.27393,0.23193,0.23926,0.2334,0.24072,0.24072,0.24707,0.24365,0.28369,0.29102,0.26318,0.24902,0.2666,0.25488,0.3042,0.26074,0.27197,0.31152,0.30811,0.3252,0.30762,0.30811,0.25098,0.26562,0.24805,0.24072,0.26562,0.26318,0.32129,0.27637,0.25342,0.23828,0.23486,0.23926,0.26709,0.26123,0.25488,0.24805,0.25244,0.24805,0.25879,0.23975,0.23926,0.24121,0.22998,0.22852,0.22607,0.22656,0.2251,0.2251,0.22607,0.22607,0.23047,0.22656,0.2207,0.22314,0.22168,0.21777,0.22559,0.2251,0.22412,0.21289,0.21875,0.2251,0.22266,0.22607,0.22852,0.22314,0.22217,0.2251,0.22607,0.22559,0.22754,0.22607,0.22607,0.22412,0.2251,0.23047,0.22559,0.22754
