0.23291,0.229,0.2334,0.25342,0.23926,0.24023,0.24219,0.23047,0.23779,0.24658,0.22852,0.2334,0.24658,0.23242,0.23926,0.24268,0.24414,0.23096,0.23633,0.22754,0.23975,0.23096,0.23486,0.23975,0.23047,0.22607,0.24023,0.23438,0.23291,0.23486,0.2334,0.22998,0.23633,0.23047,0.23047,0.24219,0.229,0.25928,0.25537,0.28369,0.24268,0.24219,0.26123,0.23877,0.24658,0.26025,0.24854,0.24219,0.26416,0.25977,0.28955,0.25781,0.29883,0.28174,0.34277,0.3374,0.28076,0.32129,0.35205,0.31982,0.30469,0.31201,0.32324,0.29639,0.27148,0.2793,0.27197,0.27002,0.28076,0.2998,0.35156,0.32568,0.32324,0.35107,0.43213,0.41406,0.37109,0.38477,0.39453,0.42236,0.39014,0.4707,0.47119,0.47559,0.52051,0.51611,0.46094,0.46436,0.34619,0.37695,0.36914,0.39502,0.41992,0.42383,0.41992,0.40137,0.36816,0.35498,0.38184,0.40283,0.4585,0.52051,0.44141,0.58398,0.5791,0.57617,0.57715,0.58398,0.52051,0.5332,0.50781,0.52051,0.52734,0.48926,0.55371,0.52637,0.50977,0.4502,0.49072,0.51855,0.55713,0.47607,0.44043,0.44775,0.46582,0.49707,0.49414,0.43164,0.39307,0.42334,0.48047,0.47949,0.42725,0.51318,0.44873,0.5332,0.4292,0.50293,0.39209,0.40918,0.4834,0.35449,0.45703,0.49414,0.43066,0.4917,0.47461,0.59912,0.56641,0.54736,0.51758,0.54102,0.6333,0.55078,0.56543,0.57031,0.59668,0.52441,0.52734,0.48682,0.54004,0.52197,0.5625,0.54834,0.6001,0.49951,0.48535,0.43262,0.51611,0.49463,0.42627,0.45117,0.44922,0.51953,0.58398,0.51807,0.53711,0.5332,0.5332,0.48584,0.48438,0.53076,0.54834,0.45996,0.51758,0.56152,0.53125,0.58887,0.5625,0.5332,0.4375,0.48047,0.52832,0.5,0.60156,0.55957,0.62207,0.63574,0.62451,0.6167,0.62598,0.62305,0.61426,0.56641,0.55371,0.59912,0.58154,0.58252,0.63965,0.6001,0.64551,0.62988,0.63965,0.64062,0.59033,0.54492,0.59668,0.59277,0.56055,0.57422,0.63477,0.62793,0.60547,0.6123,0.62891,0.63086,0.63477,0.6123,0.60693,0.63428,0.64648,0.62891,0.62207,0.61426,0.60889,0.60889,0.6167,0.63965,0.59375,0.60254,0.63184,0.61328,0.6333,0.62402,0.64355,0.62012,0.64355,0.65332,0.66211,0.6543,0.65186,0.65869,0.65234,0.63965,0.64307,0.65625,0.64648,0.65186,0.63574,0.65332,0.64209,0.64941,0.65332,0.63672,0.65186,0.6499,0.65723,0.65088,0.64941,0.65186,0.64941,0.65186,0.64307,0.63672,0.63428,0.65967,0.66504,0.65332,0.66602,0.66064,0.63672,0.65332,0.64453,0.64355,0.64355,0.64307,0.6377,0.6499,0.62891,0.63281,0.64307,0.64746,0.64307,0.62549,0.64062,0.65234,0.64307,0.63086,0.63672,0.63086,0.62988,0.65234,0.64209,0.65527,0.62891,0.64209,0.64453,0.64648,0.62549,0.63428,0.64746,0.6543,0.65527,0.64648,0.64844,0.64844,0.64551,0.62109,0.61523,0.61914,0.64111,0.62549,0.64453,0.64844,0.65186,0.6543,0.63184,0.64355,0.61719,0.64746,0.64062,0.65234,0.64453,0.6333,0.64648,0.63428,0.65332,0.64355,0.65332,0.64062,0.64746,0.63672,0.63281,0.6499,0.64746,0.62109,0.63965,0.6333,0.63965,0.64453,0.62793,0.63574,0.62988,0.62451,0.63867,0.63965,0.61914,0.63086,0.61133,0.6001,0.60547,0.58105,0.60889,0.56396,0.57373,0.59473,0.5918,0.60547,0.59912,0.61035,0.60889,0.62012,0.59375,0.59131,0.62207,0.61572,0.59033,0.57812,0.61914
0.22705,0.23096,0.23242,0.23828,0.25244,0.23779,0.23145,0.24072,0.24219,0.2373,0.23242,0.23926,0.23779,0.23926,0.23389,0.24658,0.24756,0.24902,0.23047,0.23828,0.22998,0.22949,0.22803,0.22656,0.23047,0.22754,0.23779,0.25488,0.24854,0.24805,0.23291,0.22803,0.23389,0.24854,0.25146,0.25244,0.22949,0.23633,0.25195,0.24365,0.27637,0.29883,0.25684,0.26123,0.25977,0.24072,0.24707,0.26904,0.24902,0.27002,0.2832,0.26807,0.29053,0.28027,0.3042,0.34424,0.33154,0.3623,0.35205,0.3252,0.31592,0.3125,0.35547,0.32764,0.26514,0.28857,0.25732,0.26807,0.28076,0.30859,0.36768,0.39014,0.33154,0.36621,0.40137,0.40234,0.39062,0.34424,0.35938,0.43115,0.4375,0.39404,0.44678,0.44531,0.49023,0.47656,0.46484,0.37842,0.39209,0.46436,0.42041,0.39746,0.36035,0.39209,0.4502,0.35303,0.35938,0.38232,0.396,0.39551,0.41357,0.4248,0.53711,0.52344,0.56396,0.56738,0.56396,0.57031,0.5376,0.50781,0.47607,0.42871,0.49365,0.48047,0.55762,0.56641,0.45996,0.46729,0.50977,0.51465,0.56836,0.51465,0.44043,0.46582,0.47412,0.44336,0.46924,0.44043,0.33838,0.46436,0.4834,0.49463,0.48535,0.47119,0.49072,0.47607,0.47266,0.41602,0.37939,0.49609,0.47461,0.54004,0.46973,0.53857,0.50098,0.40479,0.45117,0.51465,0.6167,0.55518,0.52979,0.54297,0.62988,0.5625,0.5376,0.54834,0.55371,0.55762,0.56055,0.48486,0.51172,0.55957,0.51807,0.58496,0.56934,0.49951,0.53711,0.47217,0.45703,0.53955,0.52734,0.4585,0.4585,0.55371,0.5459,0.47803,0.53857,0.50928,0.45605,0.49854,0.50195,0.50537,0.44189,0.4375,0.42041,0.479,0.51465,0.58105,0.57373,0.50391,0.48682,0.56836,0.54199,0.59473,0.61816,0.59375,0.61719,0.60059,0.63086,0.61572,0.58789,0.58398,0.59375,0.54199,0.48828,0.4917,0.58887,0.58105,0.59131,0.63672,0.63477,0.6167,0.64551,0.64111,0.60352,0.61914,0.57031,0.61328,0.59033,0.59814,0.60059,0.57715,0.61914,0.63428,0.6167,0.56738,0.58008,0.52637,0.55518,0.62988,0.64111,0.60791,0.61328,0.64111,0.64111,0.64209,0.64307,0.64648,0.62402,0.63867,0.62207,0.61523,0.62451,0.6377,0.62402,0.64111,0.6377,0.64111,0.65869,0.65527,0.65967,0.66211,0.65625,0.66064,0.64844,0.64307,0.65234,0.64307,0.64551,0.63965,0.65527,0.65234,0.65088,0.6499,0.65088,0.64746,0.64307,0.63867,0.65088,0.65332,0.66064,0.64941,0.6499,0.65527,0.64941,0.65332,0.6582,0.65723,0.66113,0.64648,0.64111,0.64209,0.6377,0.65186,0.64941,0.64844,0.64746,0.6377,0.62793,0.63867,0.64551,0.65186,0.64941,0.64941,0.64551,0.64307,0.64307,0.6499,0.64941,0.64551,0.64844,0.65186,0.6377,0.6333,0.6377,0.64453,0.64844,0.6499,0.63281,0.64307,0.65186,0.64307,0.64941,0.62988,0.63574,0.64844,0.64746,0.6499,0.63184,0.6333,0.63965,0.64648,0.64355,0.6543,0.64453,0.63574,0.64551,0.64062,0.61816,0.62012,0.64648,0.62305,0.62305,0.64453,0.64648,0.64307,0.64307,0.6377,0.64307,0.6499,0.64648,0.65186,0.63672,0.64648,0.6377,0.60791,0.61719,0.64111,0.63477,0.64307,0.63965,0.64209,0.60889,0.59277,0.62402,0.64111,0.63428,0.60791,0.62402,0.57715,0.59277,0.57422,0.61523,0.6001,0.57812,0.58496,0.58301,0.62305,0.62988,0.63965,0.63184,0.64111,0.62891,0.62012,0.61914,0.62695,0.5918,0.62012,0.60352
0.22559,0.23242,0.23486,0.23633,0.23682,0.23486,0.24805,0.23291,0.24365,0.23096,0.24316,0.2334,0.23926,0.23682,0.23828,0.23877,0.26074,0.23047,0.23096,0.23291,0.23242,0.22607,0.22998,0.24512,0.23389,0.26123,0.24268,0.25049,0.24072,0.23193,0.23682,0.23389,0.22705,0.24756,0.23047,0.23145,0.23828,0.23291,0.2334,0.25732,0.25244,0.2417,0.25049,0.24365,0.24658,0.26514,0.23975,0.26172,0.27002,0.2749,0.27686,0.26514,0.31934,0.33154,0.32959,0.33496,0.29248,0.32568,0.31738,0.29541,0.2749,0.28711,0.28613,0.25977,0.24609,0.26367,0.24951,0.26807,0.25928,0.31934,0.32959,0.35449,0.35107,0.34229,0.37695,0.33008,0.37842,0.41113,0.3291,0.39453,0.42627,0.44189,0.45508,0.46729,0.45215,0.49609,0.47705,0.40186,0.36279,0.38184,0.34277,0.38574,0.43896,0.35938,0.48486,0.4585,0.40625,0.46729,0.44922,0.4834,0.38818,0.5,0.43213,0.47949,0.50879,0.52344,0.54199,0.49072,0.57275,0.57422,0.48047,0.51465,0.53076,0.54736,0.53125,0.49756,0.52979,0.45996,0.44531,0.5166,0.56396,0.57422,0.4082,0.50586,0.38623,0.48926,0.41797,0.45996,0.38672,0.4707,0.41748,0.43164,0.46191,0.48193,0.42139,0.43359,0.42139,0.42139,0.4707,0.49316,0.50879,0.5166,0.47949,0.45947,0.54395,0.42383,0.4541,0.54883,0.57422,0.58105,0.56641,0.5625,0.58008,0.57275,0.54639,0.55176,0.51074,0.59912,0.59375,0.62305,0.58691,0.55078,0.47705,0.58154,0.50293,0.5625,0.5918,0.53418,0.52539,0.56494,0.5249,0.56641,0.46924,0.53076,0.51172,0.50391,0.5293,0.48193,0.54736,0.48047,0.41699,0.43555,0.39062,0.48779,0.44922,0.46094,0.51855,0.52637,0.52344,0.5498,0.44629,0.56055,0.59912,0.59375,0.5957,0.62207,0.59473,0.60156,0.61572,0.63428,0.55078,0.61328,0.62305,0.53418,0.52344,0.53076,0.56348,0.57227,0.60791,0.55713,0.62109,0.62793,0.62305,0.6377,0.62012,0.59814,0.6167,0.60156,0.62695,0.62598,0.60547,0.62012,0.58105,0.63184,0.60254,0.59912,0.60059,0.5957,0.56738,0.5957,0.59375,0.58691,0.61426,0.63867,0.61523,0.6377,0.62451,0.64551,0.64111,0.63086,0.64307,0.64551,0.64209,0.63477,0.63184,0.64111,0.64111,0.65967,0.65527,0.65625,0.64648,0.65869,0.65088,0.65332,0.63867,0.6582,0.64062,0.65088,0.6499,0.64746,0.65234,0.64941,0.64746,0.6543,0.64648,0.65332,0.65332,0.64307,0.65186,0.64111,0.65869,0.64941,0.6543,0.6499,0.66406,0.66211,0.65527,0.66211,0.66406,0.65088,0.64111,0.6377,0.6377,0.63965,0.63281,0.64453,0.64648,0.63867,0.64062,0.62695,0.65234,0.64746,0.63965,0.63867,0.66064,0.64746,0.64551,0.63672,0.65869,0.64648,0.64746,0.64453,0.64111,0.64551,0.65332,0.62891,0.65332,0.64209,0.64648,0.63477,0.63867,0.64062,0.64062,0.63965,0.65234,0.64062,0.65332,0.65723,0.64648,0.65527,0.64551,0.65332,0.66113,0.64746,0.65723,0.64307,0.65234,0.6167,0.59131,0.64453,0.65088,0.64746,0.63574,0.64453,0.63281,0.63184,0.63867,0.64844,0.62598,0.6499,0.62793,0.62891,0.59766,0.63867,0.64307,0.63477,0.60254,0.6123,0.59912,0.61328,0.60254,0.62402,0.56836,0.62891,0.60645,0.64746,0.61035,0.62891,0.62402,0.57812,0.5957,0.62598,0.61523,0.59814,0.56348,0.56641,0.58008,0.57422,0.60254,0.63672,0.63477,0.61914,0.60449,0.63867,0.63574,0.62549,0.57617,0.61328,0.61426
0.22754,0.22607,0.22949,0.24023,0.23926,0.25146,0.24463,0.23682,0.23535,0.24268,0.24902,0.23486,0.23877,0.23828,0.23486,0.24658,0.24609,0.24463,0.23682,0.23193,0.22754,0.23486,0.23975,0.24854,0.24561,0.25635,0.26025,0.25146,0.24902,0.23438,0.22949,0.229,0.23047,0.22803,0.22852,0.22754,0.23145,0.23193,0.23096,0.23242,0.25488,0.26367,0.24707,0.23486,0.24707,0.25879,0.23633,0.23389,0.24756,0.26758,0.25684,0.27246,0.30078,0.34229,0.3501,0.30615,0.31201,0.34033,0.29346,0.33838,0.30713,0.32617,0.30127,0.31787,0.25928,0.2583,0.2666,0.25537,0.28906,0.32031,0.34473,0.35938,0.31787,0.31396,0.32617,0.37451,0.36475,0.3335,0.34814,0.3501,0.41797,0.47803,0.4585,0.43359,0.42822,0.40186,0.38184,0.43848,0.44336,0.37451,0.37402,0.43359,0.43701,0.42725,0.42383,0.45947,0.44434,0.46338,0.49707,0.43945,0.41943,0.41602,0.41113,0.42188,0.47607,0.49951,0.52686,0.56152,0.54102,0.53711,0.52344,0.52637,0.56494,0.55762,0.57715,0.60547,0.5498,0.51855,0.50342,0.52441,0.54004,0.56836,0.50781,0.50391,0.42139,0.37695,0.43066,0.39648,0.37012,0.39209,0.45898,0.51807,0.4458,0.39941,0.4082,0.41797,0.48682,0.55078,0.53857,0.47217,0.4502,0.48438,0.44678,0.43555,0.47559,0.46973,0.45947,0.46582,0.57617,0.56738,0.52051,0.55518,0.57422,0.6167,0.60547,0.59814,0.58252,0.61914,0.63086,0.58252,0.60645,0.5918,0.54004,0.55713,0.54102,0.51465,0.59375,0.59912,0.53516,0.5166,0.55957,0.49365,0.54297,0.58008,0.53711,0.51465,0.52344,0.48193,0.54395,0.50928,0.43506,0.45508,0.43701,0.38574,0.44775,0.46777,0.52246,0.5459,0.49463,0.56934,0.53418,0.58887,0.60352,0.57275,0.55371,0.54395,0.60449,0.58154,0.59814,0.61426,0.60254,0.56934,0.59131,0.59912,0.53955,0.5791,0.58594,0.60645,0.55762,0.57617,0.53711,0.58398,0.6167,0.62012,0.62695,0.64307,0.62891,0.63184,0.60352,0.62207,0.58594,0.61426,0.58301,0.61572,0.62451,0.57422,0.56396,0.58105,0.58496,0.56934,0.58301,0.61035,0.61035,0.61035,0.62305,0.64453,0.64307,0.62598,0.64307,0.65234,0.64941,0.63672,0.64209,0.65186,0.64844,0.65234,0.64746,0.64551,0.6543,0.65527,0.6499,0.6543,0.64844,0.65723,0.6499,0.65869,0.64746,0.65234,0.65186,0.64844,0.65088,0.64941,0.64062,0.65088,0.64941,0.6499,0.65723,0.6499,0.65186,0.64844,0.64209,0.64551,0.65625,0.66064,0.6582,0.6499,0.66211,0.6582,0.65234,0.65088,0.64941,0.63965,0.65527,0.65332,0.64111,0.64551,0.6377,0.62598,0.64551,0.65332,0.65332,0.65967,0.64746,0.65869,0.65625,0.6582,0.6543,0.65088,0.64844,0.65527,0.64453,0.63574,0.6377,0.64209,0.64941,0.65234,0.63672,0.62451,0.6377,0.65234,0.64746,0.63574,0.64453,0.64209,0.65088,0.65869,0.6543,0.66406,0.65869,0.65967,0.64648,0.65869,0.65869,0.64453,0.64844,0.64551,0.63184,0.63965,0.6167,0.63574,0.6377,0.64307,0.63477,0.63428,0.60693,0.61133,0.61816,0.62793,0.63672,0.64941,0.63477,0.60938,0.59277,0.59375,0.61426,0.59277,0.62012,0.6001,0.60645,0.58105,0.57812,0.57373,0.59473,0.62598,0.63574,0.64746,0.63086,0.6167,0.63184,0.63184,0.58105,0.58105,0.61426,0.59277,0.60547,0.60889,0.56641,0.60693,0.60156,0.62598,0.61914,0.62891,0.62109,0.62012,0.6123,0.60791,0.5957,0.54834,0.58008
0.22754,0.23193,0.22852,0.23926,0.24023,0.23486,0.25781,0.23633,0.23047,0.23926,0.24512,0.23584,0.23047,0.22949,0.23047,0.24219,0.25195,0.22998,0.22949,0.23242,0.22656,0.23291,0.23193,0.24316,0.23975,0.23291,0.23389,0.23438,0.2627,0.24316,0.2334,0.23486,0.24365,0.23389,0.24365,0.23926,0.23389,0.23486,0.23486,0.23975,0.24561,0.25488,0.23242,0.23438,0.25635,0.24609,0.25342,0.24365,0.24756,0.23975,0.2666,0.27051,0.2915,0.28125,0.3418,0.37305,0.37061,0.28516,0.32812,0.30811,0.28809,0.30176,0.33252,0.29248,0.27588,0.26855,0.29199,0.26953,0.30615,0.31152,0.30127,0.34033,0.33105,0.30957,0.3374,0.37695,0.36377,0.40479,0.37695,0.32617,0.35547,0.39648,0.48047,0.48291,0.38916,0.42969,0.37695,0.38721,0.40234,0.39941,0.4458,0.4292,0.52832,0.4375,0.44531,0.42871,0.48682,0.48193,0.49756,0.37842,0.35059,0.3667,0.49463,0.44922,0.52051,0.5498,0.50977,0.57812,0.53711,0.54395,0.56738,0.57031,0.58936,0.54004,0.49756,0.49854,0.56641,0.48438,0.479,0.46094,0.5957,0.5249,0.43555,0.4624,0.45264,0.46826,0.3291,0.38916,0.39746,0.35254,0.521,0.49561,0.41211,0.5,0.47656,0.45996,0.55762,0.57715,0.479,0.42725,0.40967,0.43311,0.39258,0.45996,0.54883,0.5625,0.53223,0.58887,0.60449,0.55713,0.49805,0.57812,0.59131,0.57129,0.62549,0.55469,0.58105,0.6123,0.58887,0.59912,0.62305,0.58496,0.49609,0.51172,0.57031,0.59668,0.55957,0.58154,0.57422,0.53613,0.521,0.51807,0.50781,0.5332,0.57129,0.52734,0.55078,0.50586,0.50977,0.46777,0.4165,0.44775,0.46436,0.48535,0.44287,0.51318,0.50342,0.51465,0.43555,0.49365,0.50781,0.53955,0.55957,0.5918,0.59766,0.60889,0.58105,0.60791,0.5625,0.53516,0.54736,0.53076,0.57617,0.53955,0.54492,0.58887,0.49463,0.57373,0.58594,0.52734,0.57422,0.60059,0.63672,0.63672,0.58154,0.64111,0.64111,0.60059,0.62695,0.53955,0.51758,0.5791,0.60352,0.61914,0.59277,0.60693,0.51953,0.59131,0.59814,0.61572,0.6167,0.60938,0.62305,0.63574,0.64648,0.64941,0.64746,0.6543,0.6582,0.63672,0.64355,0.63672,0.65088,0.65625,0.65527,0.6543,0.64111,0.63867,0.63867,0.64746,0.64111,0.65527,0.65869,0.64746,0.63965,0.63965,0.6499,0.63965,0.63281,0.64551,0.6543,0.63184,0.64551,0.63574,0.64307,0.65527,0.64209,0.64307,0.64307,0.65088,0.64453,0.64746,0.6543,0.66504,0.64844,0.66992,0.66406,0.66113,0.66699,0.64307,0.63281,0.63965,0.6543,0.64062,0.63477,0.6543,0.64746,0.64648,0.6377,0.65088,0.6582,0.66064,0.65527,0.64551,0.65869,0.65967,0.6582,0.66064,0.64844,0.64307,0.63965,0.64111,0.63428,0.65625,0.65332,0.64551,0.64062,0.62207,0.63672,0.65088,0.64453,0.64746,0.64209,0.63574,0.64111,0.64551,0.65234,0.6499,0.65967,0.64551,0.63965,0.64648,0.6543,0.63428,0.62988,0.6543,0.65186,0.64111,0.62451,0.6167,0.60645,0.63574,0.63477,0.63086,0.62695,0.62549,0.62305,0.62598,0.64209,0.60352,0.60352,0.61572,0.61572,0.59912,0.60693,0.5957,0.60059,0.57812,0.62109,0.59912,0.56934,0.60059,0.62891,0.62402,0.63281,0.62598,0.64551,0.62451,0.62988,0.62891,0.61523,0.60352,0.58691,0.62109,0.57422,0.56934,0.59277,0.56348,0.59277,0.61328,0.61035,0.63086,0.5791,0.55713,0.57812,0.61523,0.5957,0.54395,0.5498
0.22607,0.22656,0.22852,0.22803,0.23193,0.24609,0.24951,0.2373,0.23926,0.23389,0.23486,0.23486,0.23682,0.23193,0.23438,0.22998,0.23877,0.24365,0.22998,0.22949,0.22607,0.23193,0.23193,0.23389,0.23535,0.24219,0.23047,0.23193,0.25098,0.25537,0.24951,0.25586,0.24609,0.24561,0.24561,0.23828,0.23682,0.24268,0.24365,0.24219,0.23633,0.23486,0.23291,0.22998,0.23389,0.24805,0.24414,0.23779,0.24951,0.23975,0.2583,0.2583,0.25879,0.30469,0.32031,0.34375,0.35107,0.32715,0.2959,0.3042,0.29004,0.32617,0.29248,0.2832,0.25781,0.2666,0.30713,0.28174,0.28174,0.28027,0.29297,0.30811,0.28857,0.28369,0.35254,0.3291,0.37402,0.38818,0.34717,0.36133,0.34229,0.33447,0.41992,0.43018,0.42188,0.35156,0.37158,0.34326,0.3584,0.43213,0.46973,0.54883,0.52539,0.4668,0.52246,0.55371,0.50098,0.48047,0.40918,0.41211,0.39404,0.39893,0.479,0.50195,0.50098,0.48145,0.49707,0.5498,0.5918,0.58936,0.54736,0.56494,0.54736,0.5459,0.5293,0.54004,0.51758,0.46973,0.49316,0.55518,0.56152,0.4707,0.41895,0.37549,0.39014,0.35205,0.35449,0.38037,0.34375,0.35938,0.51074,0.49561,0.47314,0.46973,0.47217,0.44629,0.53076,0.5752,0.52441,0.53418,0.44775,0.50586,0.45361,0.51465,0.50098,0.55615,0.59814,0.58008,0.55518,0.58154,0.52344,0.51221,0.52051,0.5332,0.57617,0.55176,0.51611,0.52246,0.56738,0.56152,0.57129,0.55713,0.52832,0.57031,0.60352,0.56494,0.52979,0.48779,0.51855,0.52246,0.50342,0.46729,0.54883,0.5918,0.57422,0.57275,0.56934,0.58105,0.5459,0.56543,0.48438,0.40234,0.45215,0.41699,0.42139,0.43311,0.43555,0.41699,0.4458,0.55615,0.56738,0.51758,0.56738,0.60352,0.60059,0.58691,0.5957,0.5459,0.56396,0.49609,0.53516,0.57275,0.57422,0.58936,0.57275,0.53857,0.5,0.45264,0.51807,0.52539,0.5791,0.63184,0.62793,0.64111,0.60791,0.60059,0.61426,0.63574,0.60791,0.53418,0.50879,0.56152,0.5625,0.60645,0.61133,0.55176,0.56152,0.60693,0.62695,0.60254,0.62695,0.62549,0.64111,0.64844,0.64844,0.65332,0.64355,0.64941,0.65186,0.65234,0.63184,0.64355,0.65088,0.6582,0.64844,0.65088,0.65186,0.65332,0.64209,0.65234,0.63965,0.64648,0.65625,0.64746,0.63965,0.64844,0.65332,0.65234,0.63672,0.64209,0.64648,0.63867,0.63965,0.65332,0.65088,0.63672,0.63672,0.64844,0.6333,0.6499,0.65723,0.66602,0.65967,0.65186,0.66064,0.65869,0.66113,0.66699,0.66211,0.64062,0.63477,0.64453,0.64111,0.64746,0.64111,0.64111,0.65186,0.64551,0.6333,0.64453,0.64844,0.66064,0.66113,0.66113,0.65625,0.66064,0.6499,0.65234,0.65234,0.66064,0.65332,0.65723,0.65527,0.65625,0.64307,0.62793,0.63428,0.64844,0.63965,0.64648,0.64648,0.65088,0.63965,0.65088,0.64453,0.64453,0.6499,0.64453,0.64111,0.6377,0.63867,0.62305,0.62988,0.62109,0.63281,0.64307,0.65186,0.62305,0.62793,0.6167,0.60791,0.60547,0.60059,0.6333,0.62549,0.60938,0.58398,0.60693,0.62109,0.59766,0.60791,0.57129,0.58936,0.6167,0.62012,0.62793,0.59131,0.6123,0.60693,0.63086,0.61572,0.63867,0.62305,0.62402,0.61719,0.62598,0.64111,0.60693,0.58887,0.61816,0.60645,0.5918,0.60645,0.59912,0.5459,0.5376,0.58105,0.58691,0.57275,0.55176,0.59131,0.57275,0.58496,0.58105,0.55176,0.53076,0.55957,0.5459,0.56641
0.22852,0.22607,0.22754,0.23926,0.23486,0.25195,0.25244,0.24463,0.24756,0.23828,0.23193,0.23047,0.23926,0.23486,0.22705,0.23877,0.2334,0.22949,0.22852,0.23193,0.23145,0.22803,0.23047,0.24072,0.22998,0.23145,0.22656,0.22998,0.24365,0.24658,0.23682,0.25049,0.23291,0.23926,0.23584,0.25488,0.23291,0.23047,0.2334,0.23047,0.24512,0.24072,0.24658,0.2373,0.2373,0.25146,0.23486,0.24707,0.2373,0.25439,0.24854,0.27344,0.24658,0.2793,0.28125,0.28516,0.30322,0.2915,0.28223,0.30127,0.26465,0.2915,0.2666,0.30859,0.29395,0.28027,0.33154,0.3208,0.33252,0.30811,0.28955,0.31689,0.30078,0.28662,0.37305,0.36182,0.40283,0.35205,0.40234,0.32617,0.33398,0.38867,0.45605,0.45996,0.43896,0.40723,0.39648,0.38086,0.354,0.41309,0.45508,0.45508,0.56055,0.55176,0.50098,0.48828,0.52197,0.48047,0.48584,0.39453,0.40918,0.46338,0.49707,0.50293,0.53076,0.53076,0.58105,0.58887,0.60938,0.56641,0.50293,0.57373,0.4668,0.56396,0.50391,0.51953,0.48438,0.57275,0.52539,0.58936,0.49219,0.53613,0.4541,0.38281,0.42773,0.32178,0.41064,0.43164,0.34717,0.39209,0.49805,0.55762,0.46094,0.56543,0.56396,0.51807,0.44922,0.48291,0.44531,0.49951,0.43848,0.50879,0.40576,0.48926,0.44678,0.48584,0.56738,0.55615,0.59277,0.57275,0.57422,0.56738,0.60059,0.51172,0.55176,0.58301,0.58008,0.56494,0.60693,0.59814,0.55713,0.58008,0.56396,0.53857,0.60156,0.60645,0.53076,0.58252,0.57031,0.4834,0.52051,0.58691,0.51367,0.54199,0.58154,0.5957,0.54199,0.57422,0.55859,0.55273,0.57129,0.55371,0.51807,0.48438,0.39893,0.41455,0.48584,0.43994,0.46582,0.53223,0.5791,0.51465,0.56543,0.56934,0.55273,0.54492,0.56738,0.57275,0.52979,0.50342,0.48779,0.5459,0.51562,0.58008,0.56641,0.54492,0.54199,0.51807,0.50391,0.51807,0.58008,0.60645,0.61816,0.60449,0.62207,0.59375,0.59131,0.59912,0.5791,0.57715,0.50879,0.50098,0.51465,0.59766,0.59766,0.60938,0.57715,0.59912,0.64209,0.60889,0.64355,0.62695,0.62549,0.62109,0.64746,0.65527,0.64746,0.64062,0.6543,0.64648,0.6499,0.64111,0.63867,0.65332,0.65332,0.6543,0.64844,0.62793,0.6499,0.64648,0.63086,0.6499,0.66113,0.64551,0.6499,0.64746,0.64062,0.64648,0.64844,0.64648,0.63672,0.65234,0.63281,0.64307,0.65088,0.64355,0.63428,0.63086,0.64209,0.64844,0.65723,0.64746,0.66113,0.65625,0.66113,0.65967,0.65234,0.64941,0.6499,0.65967,0.62891,0.61816,0.64062,0.6167,0.64746,0.63184,0.64111,0.62988,0.63574,0.64941,0.65869,0.64648,0.65234,0.66113,0.64941,0.6543,0.63672,0.6582,0.66309,0.64844,0.6582,0.65527,0.64648,0.6333,0.64062,0.61572,0.60938,0.64453,0.65088,0.63281,0.64844,0.6333,0.62695,0.63965,0.64941,0.65088,0.63428,0.64453,0.65527,0.6543,0.63184,0.63428,0.63281,0.64111,0.6167,0.6499,0.65723,0.63672,0.6377,0.62598,0.61328,0.63086,0.57275,0.60791,0.60791,0.60693,0.61426,0.6167,0.62402,0.5918,0.57617,0.62109,0.58008,0.62695,0.59473,0.61035,0.63867,0.62695,0.63574,0.60059,0.60156,0.6001,0.62598,0.61133,0.61914,0.62402,0.62451,0.61133,0.60645,0.62891,0.58105,0.5791,0.60254,0.5918,0.53076,0.59912,0.58252,0.59814,0.56934,0.58398,0.54736,0.57617,0.53857,0.57373,0.5957,0.56934,0.57715,0.56152,0.60352
0.22852,0.22852,0.23682,0.24316,0.23584,0.25439,0.26025,0.25195,0.25098,0.24805,0.23828,0.2373,0.23486,0.22998,0.22998,0.23926,0.2334,0.23486,0.23193,0.23486,0.23486,0.23828,0.22705,0.22607,0.23096,0.23242,0.22803,0.23047,0.23389,0.23145,0.23633,0.23779,0.23828,0.25,0.2373,0.23047,0.23291,0.23096,0.22754,0.22852,0.23145,0.22754,0.23633,0.23096,0.24365,0.23389,0.23535,0.25049,0.24805,0.25244,0.26514,0.26904,0.24609,0.25781,0.29883,0.2959,0.30957,0.33057,0.2832,0.26855,0.2666,0.29932,0.30127,0.28125,0.26709,0.31104,0.33057,0.3125,0.33838,0.32031,0.32324,0.2793,0.28076,0.30322,0.34619,0.38525,0.36084,0.40283,0.37402,0.34229,0.36719,0.34229,0.42432,0.40527,0.40967,0.40674,0.39111,0.34424,0.36426,0.35693,0.4043,0.46094,0.48828,0.50195,0.4707,0.49707,0.50537,0.49805,0.49951,0.41895,0.43311,0.39453,0.479,0.47705,0.54004,0.5791,0.57031,0.58154,0.57129,0.54492,0.52832,0.51855,0.49707,0.5459,0.50781,0.55371,0.55713,0.55518,0.53223,0.50928,0.54004,0.49219,0.37012,0.38965,0.3335,0.34863,0.45361,0.40283,0.43701,0.47461,0.56396,0.59912,0.56396,0.51318,0.55469,0.54199,0.50098,0.50488,0.39893,0.41309,0.42383,0.37158,0.44873,0.51172,0.5293,0.49561,0.47949,0.48438,0.56836,0.60254,0.6123,0.54834,0.57812,0.56641,0.56543,0.60156,0.54736,0.5957,0.55078,0.56641,0.54102,0.60889,0.5957,0.58594,0.56152,0.60352,0.58496,0.60449,0.54199,0.55273,0.58594,0.58789,0.54199,0.51611,0.57373,0.52344,0.57373,0.60059,0.55273,0.56055,0.54492,0.4541,0.48486,0.47559,0.41211,0.48535,0.44629,0.47119,0.42676,0.45947,0.49707,0.55176,0.49805,0.53857,0.49316,0.55176,0.58105,0.54004,0.57715,0.51074,0.50488,0.53223,0.52197,0.51562,0.55176,0.55762,0.5918,0.60547,0.57129,0.57812,0.58105,0.59033,0.62402,0.5791,0.60938,0.58594,0.61816,0.58252,0.54395,0.56055,0.52344,0.49023,0.53418,0.57031,0.56494,0.5957,0.57617,0.56738,0.61914,0.64648,0.64062,0.62012,0.63477,0.62451,0.62891,0.64355,0.65332,0.66113,0.6582,0.6499,0.64746,0.64746,0.64844,0.64062,0.6499,0.64062,0.62305,0.63574,0.62988,0.64209,0.64307,0.65186,0.65527,0.65332,0.6582,0.64746,0.64307,0.64844,0.64844,0.6499,0.64648,0.64209,0.63672,0.63867,0.63428,0.63184,0.64551,0.64062,0.63281,0.64453,0.64844,0.6377,0.64648,0.64209,0.65088,0.65527,0.65088,0.65527,0.65723,0.64453,0.64453,0.6377,0.62207,0.61719,0.62598,0.6123,0.63574,0.64844,0.63574,0.63867,0.65967,0.65088,0.66113,0.66602,0.65088,0.65332,0.6333,0.65625,0.65527,0.65088,0.65332,0.65967,0.65186,0.64209,0.63477,0.6123,0.62598,0.64111,0.64307,0.65332,0.64648,0.65088,0.64648,0.63867,0.63672,0.64941,0.63965,0.62598,0.64648,0.63574,0.64941,0.63428,0.63428,0.64062,0.63281,0.64844,0.64307,0.63477,0.64355,0.63965,0.64355,0.61719,0.61328,0.62207,0.61572,0.59033,0.57422,0.57422,0.57031,0.58301,0.57812,0.61426,0.62451,0.62451,0.61328,0.62451,0.64551,0.64648,0.63672,0.62549,0.61914,0.62402,0.62109,0.63672,0.64453,0.62402,0.63574,0.64746,0.63477,0.62012,0.58594,0.5459,0.53516,0.55078,0.55273,0.55957,0.58887,0.57422,0.55615,0.58887,0.57129,0.56641,0.56152,0.55469,0.60352,0.58887,0.58496,0.58008,0.59814
0.24072,0.23242,0.23438,0.25,0.2373,0.25537,0.24854,0.26318,0.2417,0.23779,0.22949,0.2417,0.22705,0.23828,0.23584,0.2373,0.22852,0.24365,0.25195,0.23975,0.23389,0.22607,0.23193,0.22803,0.22998,0.23633,0.2334,0.22998,0.24707,0.23096,0.23975,0.22949,0.24707,0.24805,0.24121,0.24072,0.23096,0.23486,0.2334,0.22998,0.22656,0.22803,0.23438,0.23438,0.23242,0.24805,0.23291,0.25098,0.26416,0.24805,0.28418,0.24463,0.23193,0.24365,0.28711,0.26953,0.25635,0.31055,0.27246,0.27539,0.26221,0.30273,0.25732,0.26416,0.30762,0.31104,0.31689,0.30225,0.3125,0.29688,0.34229,0.32324,0.28662,0.30615,0.36865,0.31787,0.38184,0.38916,0.33838,0.2998,0.37695,0.3833,0.3374,0.39648,0.3877,0.38525,0.40283,0.38281,0.33838,0.38867,0.40039,0.4624,0.41162,0.49316,0.50488,0.43604,0.56055,0.48535,0.50879,0.43652,0.47656,0.4917,0.50684,0.54834,0.50586,0.56494,0.59131,0.57715,0.54834,0.55078,0.57715,0.49707,0.50488,0.49756,0.53418,0.53076,0.61133,0.56494,0.5332,0.44434,0.51318,0.52246,0.42041,0.46973,0.4043,0.46826,0.48926,0.41406,0.50098,0.49805,0.54834,0.57275,0.52539,0.54492,0.47461,0.55957,0.50586,0.44922,0.38721,0.43115,0.42871,0.39844,0.42676,0.55078,0.59912,0.50586,0.52344,0.47949,0.50488,0.56543,0.54736,0.60059,0.52344,0.56396,0.5166,0.59912,0.5459,0.54736,0.54395,0.52686,0.5459,0.58691,0.60449,0.53955,0.58105,0.58154,0.58154,0.57617,0.56152,0.51758,0.53857,0.51758,0.55615,0.59814,0.5625,0.59912,0.57617,0.51611,0.52246,0.5752,0.52441,0.49561,0.53125,0.38867,0.36084,0.44434,0.396,0.46484,0.50586,0.40039,0.40723,0.42529,0.4834,0.41406,0.52051,0.55371,0.56934,0.53076,0.61816,0.58887,0.50977,0.48145,0.53076,0.54736,0.52344,0.58105,0.62402,0.60645,0.62402,0.60059,0.6123,0.60791,0.6377,0.58789,0.63672,0.60938,0.57422,0.58789,0.55078,0.57373,0.54736,0.5376,0.47412,0.55371,0.55518,0.56396,0.58936,0.62109,0.62891,0.64062,0.63672,0.63672,0.62305,0.63574,0.61914,0.64746,0.65527,0.64307,0.6499,0.64453,0.64648,0.63477,0.66113,0.64551,0.64941,0.62988,0.64209,0.64209,0.65088,0.63477,0.63428,0.65332,0.65234,0.6582,0.64111,0.6499,0.65234,0.65186,0.6377,0.62549,0.62598,0.63477,0.64307,0.63281,0.64551,0.63867,0.63428,0.63574,0.64111,0.64551,0.65625,0.65527,0.64062,0.65723,0.64551,0.65234,0.64355,0.65967,0.66064,0.65723,0.64844,0.63428,0.62305,0.60938,0.62402,0.63965,0.64551,0.62549,0.6543,0.64551,0.65527,0.64453,0.65332,0.66211,0.65527,0.65332,0.62549,0.65332,0.64844,0.65625,0.64648,0.63184,0.62402,0.64551,0.62891,0.62598,0.61914,0.6377,0.64307,0.65234,0.66113,0.64453,0.62695,0.64453,0.64746,0.64355,0.62402,0.63965,0.62402,0.63086,0.65088,0.65234,0.63672,0.64307,0.62402,0.64062,0.63867,0.62207,0.65527,0.63574,0.64648,0.61914,0.62305,0.60449,0.58496,0.56055,0.5459,0.5918,0.60449,0.59766,0.60254,0.61719,0.60693,0.64111,0.61035,0.6377,0.6543,0.62891,0.64551,0.63281,0.62012,0.6333,0.60352,0.64355,0.6499,0.64648,0.62305,0.60938,0.63184,0.60693,0.50977,0.5293,0.55762,0.55176,0.52344,0.56641,0.58398,0.53076,0.58594,0.55469,0.58691,0.54639,0.54102,0.61914,0.58301,0.60449,0.6167,0.61426,0.60889
0.23877,0.23486,0.23926,0.25635,0.24609,0.2583,0.24219,0.23877,0.24756,0.23779,0.23047,0.23096,0.22754,0.22998,0.24023,0.24365,0.23389,0.25293,0.24512,0.24756,0.23047,0.23291,0.22803,0.22949,0.23242,0.22754,0.23096,0.229,0.23926,0.23926,0.22998,0.2334,0.23975,0.23242,0.23633,0.22852,0.23193,0.2334,0.23096,0.22803,0.22852,0.22998,0.23779,0.24023,0.24365,0.26172,0.25244,0.26074,0.27539,0.30713,0.27393,0.26221,0.23828,0.25879,0.24561,0.23438,0.24219,0.27686,0.2915,0.30811,0.26758,0.28906,0.27051,0.25635,0.28809,0.271,0.30811,0.30664,0.30615,0.2915,0.29004,0.29932,0.27832,0.29102,0.3252,0.31934,0.38623,0.33203,0.30518,0.34033,0.30371,0.2832,0.32471,0.34814,0.36865,0.36035,0.40918,0.41699,0.36865,0.39453,0.42041,0.41113,0.41357,0.47412,0.44238,0.49316,0.51074,0.55518,0.54492,0.47705,0.44238,0.41602,0.4541,0.50391,0.50488,0.52344,0.55713,0.58008,0.59033,0.55713,0.57617,0.55469,0.53955,0.55957,0.56396,0.5625,0.60449,0.56934,0.45508,0.50977,0.51074,0.49316,0.49707,0.39551,0.4209,0.41455,0.44238,0.50586,0.479,0.50195,0.57129,0.57422,0.50781,0.46436,0.50098,0.50586,0.47705,0.50781,0.44922,0.51172,0.50293,0.46094,0.43848,0.52051,0.57031,0.56641,0.53418,0.52979,0.47412,0.47559,0.49707,0.46973,0.50781,0.58398,0.55957,0.50684,0.5332,0.50781,0.57617,0.60156,0.54395,0.53125,0.57812,0.48828,0.50781,0.5376,0.50977,0.50537,0.5752,0.56641,0.58008,0.59131,0.55762,0.59912,0.55469,0.57617,0.58936,0.53857,0.51758,0.52832,0.58887,0.52979,0.45605,0.41992,0.42041,0.35645,0.40723,0.42529,0.48535,0.49316,0.38916,0.40234,0.45215,0.43408,0.44922,0.43701,0.47705,0.50391,0.58789,0.57715,0.50977,0.56055,0.55957,0.59912,0.58398,0.62207,0.60352,0.63477,0.61523,0.62549,0.62988,0.63867,0.62451,0.60889,0.60693,0.58154,0.57227,0.54395,0.55713,0.52832,0.50586,0.5293,0.50977,0.55371,0.59912,0.59277,0.62549,0.61426,0.58496,0.60059,0.63086,0.60254,0.60693,0.64209,0.64551,0.64844,0.64844,0.6333,0.64648,0.64844,0.6333,0.65186,0.65869,0.66113,0.65625,0.6377,0.62891,0.63281,0.64209,0.6582,0.65332,0.64307,0.64648,0.64062,0.63867,0.63867,0.64648,0.64111,0.6333,0.63281,0.62695,0.64844,0.65186,0.63477,0.6377,0.63574,0.64209,0.64062,0.64941,0.63867,0.64453,0.64746,0.64209,0.65625,0.65723,0.6543,0.64551,0.65527,0.65723,0.64307,0.6499,0.65234,0.63672,0.63281,0.62109,0.62793,0.63184,0.6499,0.6499,0.64844,0.64551,0.64209,0.65186,0.66211,0.6582,0.64209,0.63428,0.6377,0.64844,0.6543,0.64209,0.6377,0.63086,0.65088,0.65088,0.63281,0.64111,0.66064,0.65967,0.65723,0.65625,0.64941,0.64062,0.62988,0.63086,0.61816,0.6333,0.6377,0.62451,0.62891,0.64648,0.6499,0.64307,0.64746,0.62695,0.61035,0.6333,0.63672,0.64111,0.6377,0.63574,0.6499,0.63672,0.60352,0.54395,0.5459,0.50928,0.57812,0.59131,0.6167,0.59131,0.6123,0.6167,0.60059,0.63086,0.64551,0.64209,0.63672,0.63477,0.65332,0.64746,0.64844,0.62012,0.62549,0.62793,0.64111,0.61572,0.62988,0.6001,0.55957,0.5166,0.53418,0.56494,0.53857,0.5498,0.53711,0.52832,0.57227,0.57812,0.57812,0.53076,0.57275,0.58789,0.5752,0.6123,0.59668,0.62988,0.61572,0.59668
0.25098,0.25244,0.24365,0.23535,0.24316,0.23926,0.24756,0.23633,0.24805,0.25439,0.23291,0.23145,0.229,0.2334,0.2373,0.24414,0.2334,0.23242,0.23828,0.24414,0.229,0.23926,0.22705,0.23682,0.23389,0.22949,0.24561,0.23486,0.25537,0.23438,0.2373,0.23779,0.24854,0.23584,0.24512,0.24365,0.24658,0.23242,0.23096,0.2334,0.23242,0.23291,0.24902,0.24951,0.23828,0.28174,0.29297,0.28467,0.271,0.28076,0.26514,0.25488,0.23145,0.25293,0.26074,0.24902,0.23242,0.23438,0.28174,0.2832,0.25977,0.25049,0.26514,0.2583,0.26416,0.25439,0.27441,0.28174,0.32275,0.31592,0.34229,0.28271,0.3042,0.3584,0.32568,0.33936,0.32666,0.32666,0.30859,0.29785,0.34424,0.28955,0.354,0.32324,0.38574,0.35596,0.36621,0.39404,0.35498,0.43604,0.4248,0.44189,0.35986,0.44629,0.42285,0.45215,0.53857,0.54004,0.56494,0.53418,0.51465,0.48438,0.4458,0.52344,0.46484,0.53613,0.55957,0.51172,0.56543,0.59814,0.54883,0.5459,0.48926,0.54297,0.57812,0.54395,0.57031,0.49463,0.4585,0.42969,0.40479,0.49805,0.37744,0.42041,0.40967,0.43066,0.52637,0.48047,0.52539,0.51758,0.5459,0.58887,0.50781,0.55957,0.46338,0.49316,0.5293,0.47412,0.44434,0.47607,0.49219,0.5376,0.47266,0.58496,0.58105,0.54395,0.58008,0.53223,0.53857,0.49414,0.54004,0.5332,0.52051,0.57129,0.58789,0.5791,0.50293,0.4917,0.57812,0.58105,0.5293,0.5918,0.51465,0.51562,0.5459,0.56836,0.51562,0.54297,0.53711,0.54199,0.4917,0.5752,0.58789,0.57275,0.59033,0.5918,0.58105,0.51172,0.52686,0.58398,0.56738,0.47266,0.42236,0.46436,0.41162,0.46094,0.38135,0.46777,0.44336,0.39453,0.48145,0.39062,0.44531,0.37744,0.42334,0.45703,0.53955,0.5332,0.59473,0.58008,0.58008,0.59277,0.62109,0.5459,0.60254,0.60938,0.61426,0.57373,0.62695,0.62305,0.61523,0.62549,0.61719,0.61572,0.57373,0.59033,0.52051,0.51807,0.56738,0.56934,0.56494,0.56396,0.52246,0.57715,0.58252,0.61816,0.58936,0.61914,0.61523,0.60693,0.62793,0.59473,0.58398,0.62109,0.6167,0.61719,0.62988,0.62549,0.62549,0.62451,0.6499,0.65527,0.65332,0.64746,0.65869,0.64648,0.64746,0.63086,0.63477,0.62793,0.63281,0.63672,0.63428,0.64941,0.63574,0.64648,0.6543,0.63184,0.64062,0.6377,0.63086,0.64746,0.63867,0.63965,0.63281,0.64453,0.65186,0.64307,0.64746,0.65186,0.64746,0.64746,0.65869,0.65723,0.64941,0.64941,0.63965,0.66064,0.65332,0.65723,0.6543,0.65527,0.64307,0.62793,0.63184,0.64746,0.65234,0.64648,0.64648,0.63086,0.6377,0.64941,0.64648,0.64746,0.65088,0.64941,0.63428,0.64551,0.65088,0.63281,0.62549,0.6377,0.62793,0.6377,0.64355,0.65723,0.65186,0.65723,0.65332,0.6499,0.64746,0.64746,0.63867,0.62793,0.65088,0.64941,0.6543,0.63867,0.62598,0.64355,0.61914,0.64062,0.62793,0.64844,0.6333,0.6333,0.64453,0.63281,0.63672,0.63477,0.62891,0.59131,0.63867,0.59668,0.51318,0.56641,0.51465,0.58008,0.54199,0.59131,0.60547,0.62207,0.61914,0.62598,0.64307,0.64307,0.62598,0.64551,0.64111,0.61523,0.63428,0.63574,0.61035,0.59814,0.60547,0.60254,0.62598,0.60449,0.55859,0.52246,0.47461,0.5625,0.57373,0.54834,0.57275,0.57715,0.55176,0.56836,0.58691,0.54199,0.54395,0.55371,0.56543,0.61426,0.58496,0.59912,0.63086,0.59668,0.60938
0.24658,0.24219,0.24316,0.25342,0.24023,0.23682,0.23389,0.24365,0.23926,0.23633,0.24951,0.2417,0.23242,0.24121,0.23828,0.24219,0.2334,0.22803,0.23242,0.229,0.23193,0.22754,0.229,0.23242,0.24561,0.23291,0.24072,0.24902,0.25,0.24609,0.25537,0.25684,0.24268,0.25977,0.25684,0.27393,0.25146,0.24805,0.24805,0.24512,0.24365,0.24023,0.25879,0.24951,0.26074,0.25537,0.27783,0.29395,0.28418,0.26367,0.26465,0.27686,0.24316,0.23584,0.24756,0.23926,0.2373,0.25195,0.24121,0.26611,0.25391,0.24854,0.25781,0.25098,0.25146,0.2583,0.24902,0.25391,0.28857,0.33447,0.32568,0.31592,0.34033,0.32568,0.39307,0.32666,0.34082,0.29541,0.31152,0.3125,0.31494,0.29932,0.35303,0.37305,0.36475,0.36816,0.33398,0.38672,0.38965,0.45508,0.42578,0.4043,0.41064,0.44434,0.44043,0.39062,0.44238,0.48926,0.48682,0.55371,0.56396,0.53076,0.52051,0.54004,0.50195,0.54395,0.52441,0.58252,0.55273,0.59033,0.53857,0.5625,0.54004,0.5332,0.50879,0.4834,0.55713,0.48193,0.42822,0.4707,0.41162,0.40332,0.38623,0.44385,0.42725,0.43359,0.47803,0.52734,0.51562,0.54736,0.5625,0.54199,0.55518,0.54395,0.54883,0.5332,0.58252,0.59766,0.51465,0.51855,0.53125,0.60156,0.58008,0.50879,0.55713,0.59912,0.58936,0.56934,0.50342,0.51953,0.46484,0.41309,0.48926,0.48682,0.54297,0.47656,0.51172,0.51562,0.53955,0.51562,0.58887,0.55762,0.52344,0.5791,0.53613,0.47949,0.49805,0.43896,0.51855,0.5625,0.50391,0.51465,0.5249,0.51562,0.58594,0.58496,0.56494,0.57373,0.52637,0.479,0.51758,0.47217,0.44922,0.39355,0.41553,0.44922,0.37793,0.38623,0.46436,0.44238,0.44531,0.3877,0.43262,0.37451,0.43408,0.40674,0.48926,0.50586,0.52344,0.57422,0.55176,0.60352,0.6001,0.58252,0.6167,0.5918,0.60059,0.58789,0.62012,0.62207,0.62207,0.62988,0.58936,0.59277,0.58252,0.5249,0.54639,0.53076,0.56543,0.521,0.54004,0.54199,0.54102,0.57373,0.58691,0.53711,0.55762,0.57617,0.59668,0.59814,0.57275,0.56641,0.59033,0.58252,0.60254,0.64111,0.63867,0.64111,0.62305,0.63867,0.64746,0.64062,0.65088,0.6333,0.64648,0.65869,0.65723,0.64648,0.64453,0.64648,0.63086,0.63184,0.64453,0.65332,0.65088,0.6543,0.64941,0.6377,0.64941,0.64355,0.64062,0.62402,0.63477,0.63574,0.65332,0.66064,0.6543,0.64062,0.64355,0.6333,0.64209,0.64551,0.65723,0.66309,0.6543,0.66113,0.6543,0.65625,0.65186,0.65967,0.6499,0.65723,0.64648,0.6499,0.64453,0.64746,0.6543,0.65088,0.64355,0.65234,0.64648,0.6499,0.6499,0.64941,0.64648,0.64648,0.64746,0.64355,0.64648,0.65186,0.63281,0.63672,0.64746,0.6377,0.64307,0.63867,0.65332,0.65967,0.65527,0.64111,0.64844,0.65234,0.64111,0.64209,0.65527,0.65967,0.65088,0.65088,0.63867,0.63965,0.62012,0.62988,0.63672,0.62598,0.61816,0.60254,0.63086,0.61914,0.62891,0.63574,0.5918,0.56934,0.61328,0.60254,0.55518,0.57275,0.55518,0.50879,0.53418,0.53418,0.58154,0.58936,0.57422,0.62549,0.6167,0.62012,0.58887,0.62402,0.62451,0.64551,0.64209,0.6333,0.62988,0.59766,0.59277,0.60156,0.60352,0.54395,0.56055,0.5459,0.52539,0.54834,0.54199,0.57129,0.54395,0.53516,0.58301,0.60645,0.60449,0.62012,0.59814,0.61035,0.58105,0.59473,0.58105,0.58936,0.62109,0.60254,0.5957
0.25098,0.24072,0.23291,0.23389,0.25439,0.24023,0.23242,0.23926,0.23535,0.2417,0.24414,0.23145,0.23047,0.24023,0.22949,0.23389,0.24414,0.22852,0.22852,0.22998,0.2373,0.23926,0.23486,0.23486,0.27393,0.26514,0.23779,0.24219,0.23926,0.25586,0.24268,0.23926,0.23291,0.25684,0.26465,0.26514,0.26514,0.24121,0.26465,0.25391,0.25146,0.24561,0.28223,0.25928,0.25732,0.26953,0.24951,0.30078,0.27783,0.25244,0.27051,0.25342,0.23975,0.23633,0.28564,0.26367,0.26953,0.26758,0.24854,0.26904,0.23975,0.25537,0.29785,0.27881,0.24512,0.28955,0.28125,0.31348,0.29443,0.29932,0.32471,0.35645,0.37402,0.354,0.37012,0.32568,0.36084,0.33838,0.29346,0.32373,0.34375,0.31641,0.35205,0.37305,0.35986,0.33545,0.3291,0.38477,0.37744,0.4126,0.34717,0.42676,0.39062,0.4502,0.41016,0.46338,0.51562,0.5459,0.5166,0.52686,0.55713,0.56152,0.55615,0.44189,0.47412,0.44141,0.52441,0.51758,0.53613,0.48926,0.4834,0.48145,0.54297,0.51074,0.55469,0.53955,0.49805,0.5376,0.52344,0.37939,0.34912,0.35986,0.4624,0.34961,0.45947,0.39209,0.49756,0.4834,0.52344,0.51465,0.53857,0.521,0.59131,0.53516,0.60547,0.53223,0.62207,0.60693,0.4834,0.58301,0.58398,0.55371,0.5791,0.5376,0.49023,0.54395,0.61426,0.56641,0.52686,0.5376,0.45215,0.52246,0.50391,0.5459,0.48828,0.55371,0.49365,0.54395,0.57373,0.53076,0.54395,0.56543,0.57422,0.5625,0.51465,0.50928,0.41895,0.44043,0.48047,0.47803,0.53857,0.52637,0.45361,0.56055,0.59766,0.51318,0.5293,0.5957,0.56543,0.50098,0.50488,0.53711,0.48145,0.45898,0.42725,0.46729,0.41895,0.44189,0.44629,0.4375,0.4668,0.47949,0.43018,0.38867,0.43213,0.42871,0.54395,0.48291,0.50977,0.58496,0.53711,0.5791,0.58936,0.60352,0.64111,0.60449,0.62109,0.55615,0.56152,0.60156,0.56934,0.61914,0.6001,0.59033,0.60547,0.55957,0.56738,0.55176,0.55273,0.51367,0.50537,0.54004,0.57031,0.57031,0.60693,0.58008,0.55957,0.57129,0.59473,0.58789,0.56934,0.53516,0.60693,0.62402,0.58789,0.63965,0.64111,0.64062,0.63086,0.65186,0.63672,0.6582,0.64941,0.63184,0.63672,0.62695,0.64844,0.63965,0.64111,0.64111,0.63965,0.63086,0.6499,0.62451,0.62988,0.64746,0.63672,0.6499,0.64111,0.64062,0.63672,0.6123,0.63184,0.64941,0.65723,0.65625,0.64746,0.64746,0.63867,0.63867,0.62988,0.63965,0.6499,0.64941,0.64307,0.64551,0.6543,0.6582,0.64648,0.65332,0.64355,0.6377,0.64551,0.64941,0.62695,0.6543,0.64453,0.6582,0.63574,0.64307,0.65088,0.6543,0.63672,0.64844,0.64209,0.62988,0.64746,0.63184,0.63477,0.62793,0.63477,0.63965,0.64746,0.6499,0.63281,0.65723,0.64551,0.65869,0.65625,0.64111,0.65625,0.64355,0.64551,0.64307,0.66113,0.64746,0.64844,0.65186,0.6377,0.62109,0.63184,0.62305,0.6377,0.61572,0.64746,0.62695,0.62109,0.64307,0.62793,0.58691,0.59912,0.59668,0.64307,0.60449,0.54297,0.56152,0.57275,0.57715,0.56836,0.521,0.58301,0.57422,0.56543,0.58887,0.56934,0.61523,0.58691,0.62109,0.64307,0.6499,0.6543,0.64062,0.63477,0.63574,0.62598,0.59473,0.55176,0.54395,0.54199,0.56836,0.56055,0.56543,0.52051,0.58887,0.55957,0.58008,0.55762,0.60449,0.58936,0.61328,0.62549,0.62012,0.58105,0.5957,0.60059,0.60938,0.60156,0.59814,0.61572
0.23682,0.24609,0.23926,0.23975,0.25049,0.2334,0.23047,0.23193,0.23779,0.2334,0.22998,0.22803,0.22803,0.22852,0.23096,0.2417,0.2373,0.22803,0.22803,0.22656,0.22998,0.23584,0.25391,0.2417,0.25977,0.25293,0.24268,0.25586,0.24463,0.25244,0.25684,0.24121,0.24365,0.24756,0.24658,0.26221,0.24951,0.2583,0.2627,0.24316,0.24316,0.2627,0.25732,0.24805,0.25391,0.26074,0.26172,0.28467,0.28125,0.26074,0.26953,0.23535,0.23047,0.24219,0.27588,0.26953,0.2749,0.2583,0.26318,0.24121,0.2583,0.26904,0.29736,0.26953,0.27637,0.25488,0.27979,0.25635,0.29541,0.28662,0.30469,0.29541,0.3252,0.37549,0.33838,0.3374,0.34717,0.32324,0.31006,0.38281,0.39453,0.38916,0.34863,0.34668,0.38721,0.38818,0.34375,0.32129,0.34229,0.35889,0.34668,0.3584,0.4082,0.40625,0.4707,0.44531,0.50098,0.55713,0.54834,0.48047,0.51221,0.44873,0.49023,0.45898,0.44531,0.4458,0.46338,0.50977,0.49805,0.46484,0.49023,0.4375,0.46582,0.5498,0.54639,0.5166,0.42871,0.50684,0.50928,0.42041,0.40625,0.49561,0.45508,0.39258,0.3833,0.44531,0.52051,0.53613,0.5293,0.42871,0.45752,0.56494,0.59473,0.57275,0.58789,0.62402,0.60889,0.60352,0.57129,0.59131,0.55713,0.61572,0.59033,0.56641,0.50391,0.5625,0.56641,0.54639,0.57715,0.56055,0.4917,0.48193,0.47314,0.39502,0.44238,0.51611,0.51074,0.59277,0.58936,0.5957,0.5498,0.55957,0.59766,0.58691,0.52344,0.5459,0.47266,0.47217,0.50098,0.48926,0.56055,0.49219,0.46191,0.56543,0.56152,0.51758,0.5498,0.59766,0.56641,0.45264,0.43604,0.43262,0.5332,0.5332,0.49561,0.54199,0.55176,0.52686,0.48779,0.46191,0.5293,0.51807,0.44873,0.46338,0.44092,0.41699,0.48779,0.46729,0.49756,0.53076,0.58154,0.58887,0.55518,0.55859,0.62695,0.57617,0.58154,0.51855,0.55371,0.55176,0.58154,0.57617,0.55957,0.60693,0.60254,0.56543,0.56494,0.55469,0.56836,0.55078,0.50879,0.50537,0.55957,0.55518,0.5625,0.60693,0.59668,0.61914,0.60449,0.56055,0.55371,0.55176,0.58252,0.6123,0.61914,0.62549,0.63086,0.62891,0.6377,0.63477,0.65234,0.65723,0.63672,0.64355,0.62891,0.61133,0.63184,0.62402,0.64355,0.64746,0.63477,0.63477,0.63574,0.6167,0.62988,0.6167,0.62598,0.62598,0.64746,0.64307,0.61914,0.63477,0.62695,0.63867,0.64746,0.64307,0.65234,0.62793,0.62109,0.61133,0.63574,0.64648,0.65332,0.64111,0.64941,0.64941,0.65967,0.65332,0.65332,0.63672,0.63477,0.63574,0.62305,0.62598,0.63281,0.62598,0.6377,0.64648,0.65088,0.64111,0.65088,0.64111,0.63428,0.65234,0.64648,0.64844,0.6333,0.62695,0.63086,0.63965,0.61914,0.63672,0.64453,0.64062,0.64209,0.65625,0.65332,0.64746,0.65625,0.64355,0.65088,0.66113,0.6499,0.65625,0.64844,0.6499,0.65186,0.64307,0.6377,0.64062,0.60547,0.62549,0.62695,0.62549,0.63965,0.64648,0.64307,0.61572,0.60156,0.64062,0.64355,0.64844,0.63477,0.60059,0.5918,0.52832,0.54004,0.53857,0.52246,0.56348,0.59912,0.61719,0.58887,0.6123,0.58301,0.62402,0.61523,0.61914,0.64648,0.6499,0.64355,0.6499,0.6377,0.62695,0.6377,0.58154,0.57031,0.55078,0.56348,0.52979,0.51611,0.54004,0.54883,0.54102,0.56641,0.56738,0.53857,0.51855,0.55469,0.5957,0.60645,0.61133,0.61816,0.60254,0.58105,0.60352,0.60938,0.62207,0.60547
0.2334,0.23486,0.23389,0.23486,0.2373,0.24951,0.23047,0.23486,0.23047,0.22754,0.22607,0.22949,0.22656,0.22705,0.22559,0.23047,0.22705,0.23096,0.22656,0.22998,0.25342,0.23096,0.24658,0.25049,0.24805,0.24072,0.23682,0.25635,0.26904,0.25391,0.25244,0.24463,0.24902,0.25342,0.25146,0.24316,0.24805,0.24902,0.24365,0.24561,0.23926,0.26221,0.26074,0.25293,0.28418,0.28418,0.25684,0.30469,0.26123,0.27002,0.25439,0.24316,0.2417,0.25146,0.31152,0.2876,0.28467,0.26514,0.25537,0.28369,0.27441,0.29639,0.3374,0.32373,0.29736,0.28369,0.27588,0.27881,0.31641,0.28516,0.32471,0.2998,0.31348,0.32275,0.3291,0.35889,0.2998,0.2832,0.30273,0.33398,0.41553,0.36865,0.34863,0.31982,0.3335,0.32031,0.33984,0.30664,0.3252,0.37305,0.41113,0.43604,0.45605,0.4624,0.45117,0.49316,0.51221,0.46826,0.52051,0.53857,0.54492,0.52637,0.53711,0.52441,0.41943,0.4502,0.50098,0.48438,0.49463,0.55957,0.51318,0.45947,0.44531,0.51074,0.49463,0.46484,0.43945,0.45947,0.46924,0.50098,0.41357,0.47607,0.36035,0.45508,0.4375,0.53418,0.47119,0.50684,0.49219,0.43848,0.43994,0.57715,0.53711,0.58008,0.57031,0.57373,0.5957,0.58301,0.61426,0.52051,0.53613,0.55957,0.54102,0.54395,0.57812,0.59375,0.55273,0.57373,0.60156,0.58154,0.45703,0.47949,0.43799,0.4585,0.54395,0.50781,0.58105,0.60254,0.58887,0.58594,0.51758,0.54834,0.55713,0.53223,0.53711,0.49072,0.47461,0.48926,0.46191,0.52246,0.49951,0.54395,0.54492,0.48682,0.53711,0.48926,0.49756,0.47217,0.46484,0.49463,0.48535,0.48535,0.56641,0.54297,0.46729,0.57275,0.52637,0.56934,0.5376,0.57373,0.55176,0.47949,0.48047,0.51807,0.50537,0.47217,0.4585,0.49707,0.57275,0.5918,0.57227,0.58936,0.53418,0.54004,0.61914,0.60352,0.58008,0.56543,0.56055,0.51221,0.5459,0.56348,0.51465,0.54199,0.51074,0.54736,0.57275,0.54004,0.58398,0.5166,0.50928,0.48486,0.46338,0.48584,0.52441,0.53857,0.5332,0.59033,0.59033,0.59912,0.56494,0.58154,0.59766,0.57275,0.60156,0.63184,0.61035,0.64355,0.62988,0.64355,0.6499,0.64844,0.65186,0.64746,0.64453,0.65186,0.62793,0.6377,0.6377,0.63477,0.6377,0.62793,0.6377,0.61035,0.61523,0.60547,0.6167,0.62451,0.63086,0.63086,0.6123,0.62988,0.61035,0.63965,0.63184,0.64209,0.6499,0.64648,0.62793,0.64453,0.63672,0.6499,0.64062,0.64062,0.63965,0.63867,0.65088,0.65234,0.65186,0.64551,0.63574,0.60547,0.63867,0.64551,0.64648,0.64648,0.64453,0.64355,0.65625,0.64453,0.64746,0.63672,0.63965,0.63477,0.64746,0.64551,0.62305,0.63672,0.6123,0.61719,0.64111,0.63281,0.6333,0.65088,0.64648,0.64941,0.64062,0.65234,0.6333,0.6582,0.6499,0.64209,0.66211,0.65527,0.64209,0.64844,0.64844,0.62305,0.6333,0.6167,0.62891,0.6377,0.64307,0.61914,0.62109,0.64551,0.65527,0.64453,0.64062,0.62988,0.64355,0.6167,0.63965,0.60059,0.55859,0.59473,0.57715,0.48926,0.521,0.55518,0.60938,0.61133,0.60352,0.57812,0.6167,0.62695,0.59277,0.6333,0.63184,0.64209,0.6543,0.63672,0.60889,0.63281,0.63428,0.62207,0.60449,0.61426,0.57031,0.58398,0.51172,0.56494,0.55615,0.58594,0.58398,0.57812,0.50977,0.57812,0.56738,0.57129,0.6001,0.57129,0.62012,0.61572,0.58252,0.60693,0.62598,0.57617,0.60693
0.22705,0.23096,0.22852,0.23389,0.23682,0.24854,0.23926,0.23486,0.22852,0.22949,0.22705,0.22803,0.229,0.22607,0.22559,0.22705,0.22705,0.23047,0.22754,0.24023,0.24854,0.25439,0.23682,0.24658,0.25195,0.26367,0.24561,0.24512,0.26514,0.26465,0.2583,0.25732,0.25781,0.25879,0.26172,0.24609,0.23828,0.25098,0.24268,0.25977,0.2666,0.30371,0.28418,0.27441,0.28857,0.28223,0.29932,0.26367,0.27441,0.26855,0.27295,0.25195,0.24072,0.27832,0.28711,0.30322,0.30811,0.24854,0.24805,0.26074,0.25244,0.25977,0.31494,0.32568,0.30762,0.32959,0.29297,0.36133,0.34766,0.35742,0.33789,0.37207,0.33984,0.32227,0.3501,0.3374,0.30518,0.31592,0.30469,0.37402,0.36426,0.35352,0.36426,0.34229,0.34229,0.30127,0.31396,0.33154,0.34717,0.35645,0.44434,0.41357,0.44238,0.47559,0.47705,0.52441,0.49609,0.49707,0.53857,0.52539,0.51855,0.50391,0.54639,0.54395,0.4585,0.50342,0.47656,0.51953,0.53955,0.55713,0.56152,0.51855,0.49609,0.55762,0.52051,0.43652,0.44434,0.4248,0.48584,0.53076,0.45117,0.39014,0.39307,0.45215,0.48584,0.55957,0.52734,0.54004,0.45459,0.54883,0.52637,0.50342,0.57275,0.59912,0.60156,0.58691,0.56934,0.62451,0.60352,0.50781,0.52832,0.5625,0.52246,0.57373,0.54736,0.60156,0.57812,0.55371,0.57422,0.59912,0.54199,0.53076,0.46191,0.5625,0.54883,0.60254,0.57422,0.60156,0.5918,0.51807,0.50342,0.47949,0.47266,0.57129,0.56055,0.52344,0.4585,0.43994,0.48486,0.47217,0.46338,0.53613,0.51074,0.53613,0.48584,0.54639,0.521,0.47461,0.43652,0.43311,0.45996,0.44873,0.51758,0.48584,0.5459,0.56396,0.55518,0.53955,0.54736,0.53711,0.58398,0.55762,0.52246,0.53613,0.57422,0.56836,0.52441,0.58252,0.55176,0.50488,0.5376,0.53516,0.53418,0.60645,0.60254,0.6123,0.58936,0.60693,0.5459,0.58887,0.57275,0.55518,0.54004,0.55371,0.50879,0.58301,0.56494,0.5249,0.55713,0.5332,0.44336,0.43213,0.43164,0.51807,0.53516,0.46729,0.48828,0.54492,0.5459,0.60059,0.60693,0.58154,0.60254,0.59668,0.59375,0.60449,0.62402,0.63086,0.6333,0.63965,0.62109,0.62988,0.64941,0.64941,0.64844,0.65234,0.64453,0.64453,0.62695,0.61523,0.6167,0.63867,0.63281,0.6377,0.60889,0.60645,0.62695,0.63086,0.63477,0.62988,0.61816,0.6167,0.63281,0.64062,0.63965,0.63672,0.61914,0.60156,0.62988,0.6377,0.64307,0.65088,0.64307,0.62305,0.63428,0.65234,0.65088,0.65723,0.6499,0.63184,0.62598,0.60547,0.62598,0.64111,0.64648,0.6543,0.64844,0.63477,0.64941,0.63867,0.62988,0.63184,0.61572,0.63867,0.63574,0.63574,0.64062,0.65234,0.6377,0.65088,0.64307,0.64062,0.62988,0.64551,0.63965,0.64355,0.61914,0.62549,0.62549,0.6543,0.65527,0.65723,0.65332,0.64648,0.64844,0.63867,0.64307,0.64551,0.61035,0.59766,0.61523,0.62109,0.62793,0.63965,0.6377,0.64355,0.64746,0.62695,0.63477,0.62402,0.64209,0.64648,0.62793,0.58496,0.60254,0.60889,0.54395,0.58594,0.55176,0.56055,0.56494,0.58301,0.61328,0.59131,0.60645,0.57373,0.60449,0.59277,0.63477,0.62793,0.64355,0.64648,0.61328,0.62109,0.62402,0.62402,0.60693,0.60059,0.60449,0.61133,0.58154,0.56836,0.60693,0.60449,0.58154,0.59473,0.53613,0.48584,0.52979,0.52637,0.54492,0.5918,0.61426,0.6123,0.60254,0.60449,0.60938,0.61328,0.57275
0.23145,0.22607,0.22656,0.22803,0.24658,0.23486,0.22754,0.23096,0.23145,0.22998,0.23096,0.22656,0.22656,0.22607,0.22803,0.22559,0.22656,0.22852,0.22656,0.23047,0.2666,0.24072,0.23682,0.24658,0.25635,0.25635,0.24854,0.26465,0.24805,0.26807,0.27441,0.28076,0.25049,0.24756,0.24121,0.25049,0.23242,0.24365,0.24414,0.23975,0.26611,0.27832,0.30566,0.29248,0.28857,0.2959,0.29834,0.27881,0.27246,0.28174,0.27441,0.26514,0.23389,0.25586,0.30908,0.30078,0.33984,0.26953,0.27002,0.25195,0.25635,0.30078,0.32959,0.29834,0.25293,0.28662,0.27393,0.34277,0.31738,0.38086,0.33398,0.33447,0.36279,0.35791,0.30615,0.30811,0.34277,0.33789,0.31738,0.38184,0.34277,0.34375,0.36133,0.34277,0.3335,0.32422,0.32715,0.28613,0.30322,0.3291,0.37695,0.45947,0.42725,0.42188,0.47656,0.4375,0.50293,0.479,0.54492,0.4502,0.47412,0.54834,0.52051,0.46582,0.46191,0.48828,0.49414,0.52832,0.55859,0.54199,0.52539,0.48535,0.49023,0.51807,0.51855,0.50586,0.37598,0.43994,0.54736,0.48193,0.52051,0.43115,0.41406,0.49854,0.4917,0.5459,0.59473,0.44678,0.49707,0.49414,0.49756,0.49756,0.51611,0.59131,0.57275,0.58936,0.59912,0.61572,0.5332,0.60156,0.52344,0.51611,0.55518,0.58154,0.58887,0.50488,0.52637,0.54004,0.51855,0.53076,0.46826,0.49756,0.43896,0.52344,0.5,0.51807,0.60693,0.5293,0.55176,0.49365,0.44141,0.45947,0.48828,0.50391,0.57422,0.50293,0.49561,0.47803,0.4502,0.45947,0.48926,0.51465,0.56494,0.4624,0.51807,0.49951,0.48926,0.50537,0.41064,0.39453,0.39844,0.45459,0.57617,0.56934,0.49219,0.49854,0.49707,0.5166,0.55615,0.59766,0.53125,0.58252,0.57129,0.51953,0.58252,0.48828,0.51465,0.46338,0.44141,0.53516,0.51807,0.59277,0.52734,0.58398,0.61914,0.6001,0.56934,0.60059,0.55859,0.56641,0.48779,0.5752,0.50293,0.50098,0.50098,0.52344,0.51465,0.50928,0.49316,0.45947,0.45508,0.43701,0.41113,0.53857,0.5293,0.52246,0.49707,0.55371,0.56738,0.55273,0.59277,0.59277,0.61914,0.61133,0.61035,0.63184,0.63965,0.60693,0.63965,0.61816,0.60156,0.64941,0.63477,0.63428,0.65186,0.63086,0.62988,0.64111,0.62695,0.63428,0.6167,0.64209,0.63965,0.60449,0.62891,0.63965,0.64307,0.62012,0.62305,0.61426,0.60791,0.64111,0.63574,0.64062,0.63477,0.64209,0.59912,0.64209,0.64844,0.63672,0.64453,0.64844,0.61572,0.64941,0.63867,0.62988,0.64355,0.65527,0.65625,0.64453,0.61816,0.64746,0.63672,0.64551,0.65625,0.66211,0.65625,0.63428,0.63477,0.62109,0.62598,0.63086,0.61426,0.63281,0.63574,0.62695,0.63672,0.64844,0.62305,0.63428,0.6543,0.63281,0.64062,0.63086,0.65332,0.62695,0.64111,0.63867,0.63428,0.6377,0.64746,0.6377,0.63281,0.63867,0.65186,0.64648,0.64941,0.61719,0.62988,0.6377,0.60645,0.6377,0.62451,0.64746,0.63574,0.62598,0.64209,0.64062,0.62012,0.64648,0.62305,0.63428,0.62451,0.60791,0.55518,0.56396,0.52637,0.55762,0.59375,0.54199,0.59814,0.62109,0.6333,0.62988,0.59912,0.60059,0.62207,0.63281,0.62695,0.63086,0.6377,0.61328,0.60693,0.63867,0.61426,0.62549,0.62549,0.63281,0.58398,0.59912,0.59375,0.58008,0.6167,0.58154,0.53076,0.53516,0.52832,0.58154,0.51318,0.58936,0.58594,0.60449,0.59277,0.59131,0.57373,0.60059,0.62451,0.6167,0.58936
0.22705,0.22656,0.22607,0.23145,0.2334,0.22852,0.22607,0.22559,0.22607,0.22656,0.22754,0.229,0.229,0.2334,0.22705,0.23096,0.23145,0.23389,0.23047,0.2373,0.24268,0.24805,0.23193,0.23535,0.24121,0.2373,0.23242,0.23242,0.25439,0.27344,0.24951,0.28223,0.26514,0.24219,0.24268,0.23584,0.24268,0.23975,0.25098,0.25635,0.24805,0.28662,0.29199,0.31348,0.31006,0.30127,0.28857,0.27832,0.25635,0.26074,0.25391,0.24756,0.24561,0.26709,0.3042,0.28076,0.31689,0.33984,0.3042,0.34912,0.30615,0.32861,0.29492,0.25684,0.26123,0.25977,0.29248,0.31689,0.3208,0.33105,0.3833,0.38525,0.3501,0.34277,0.32715,0.34619,0.37109,0.39062,0.37793,0.36279,0.32617,0.33496,0.29688,0.29736,0.32617,0.36963,0.32812,0.31494,0.30615,0.32178,0.42188,0.36133,0.3877,0.46484,0.47656,0.43799,0.41699,0.44629,0.47217,0.50537,0.45996,0.48779,0.46973,0.50537,0.48926,0.49023,0.46338,0.50098,0.49609,0.45264,0.47559,0.44873,0.45605,0.36816,0.39014,0.38281,0.43018,0.49365,0.49561,0.56738,0.5332,0.45898,0.4502,0.53857,0.53711,0.54102,0.56494,0.56152,0.44775,0.49805,0.5166,0.49707,0.53857,0.56348,0.51758,0.58887,0.58105,0.50195,0.53613,0.56494,0.58398,0.57617,0.54004,0.53076,0.58105,0.56641,0.52197,0.49414,0.56934,0.48486,0.48779,0.49365,0.5166,0.51074,0.55518,0.55957,0.58594,0.57812,0.48584,0.42969,0.46924,0.54395,0.51807,0.45752,0.48926,0.54395,0.52344,0.479,0.47314,0.48779,0.50293,0.55615,0.52051,0.46729,0.45459,0.41016,0.43555,0.39062,0.45508,0.47803,0.43213,0.48047,0.56836,0.54297,0.48291,0.5,0.52441,0.521,0.60693,0.5249,0.51465,0.57031,0.59473,0.54883,0.55762,0.57129,0.5249,0.52979,0.45947,0.44336,0.5376,0.57275,0.58594,0.54492,0.55371,0.56494,0.5918,0.53711,0.56055,0.5332,0.49561,0.50537,0.55762,0.58252,0.53711,0.46338,0.49561,0.43066,0.45752,0.42871,0.38916,0.40869,0.4624,0.53613,0.52441,0.521,0.54736,0.51318,0.55078,0.54736,0.57812,0.57715,0.60938,0.60254,0.62451,0.63867,0.62012,0.61914,0.61328,0.63086,0.63428,0.64453,0.64453,0.65088,0.62793,0.60352,0.62988,0.62793,0.62305,0.64062,0.64111,0.62598,0.61914,0.6377,0.62695,0.61035,0.6333,0.64209,0.62109,0.62207,0.62549,0.64453,0.64746,0.64941,0.6499,0.6333,0.62012,0.63428,0.64453,0.65088,0.64746,0.62549,0.62305,0.63867,0.64355,0.64648,0.64648,0.6543,0.64648,0.64307,0.64453,0.65234,0.64453,0.64844,0.65723,0.64941,0.65527,0.65527,0.62891,0.63965,0.62549,0.61035,0.61914,0.62451,0.64062,0.64941,0.64648,0.63867,0.64453,0.6543,0.65186,0.64307,0.65186,0.64307,0.64746,0.63086,0.64355,0.6123,0.62207,0.65088,0.64746,0.65186,0.63672,0.64062,0.64844,0.6377,0.64307,0.62988,0.61719,0.63428,0.62598,0.64209,0.63965,0.63672,0.62109,0.61426,0.64355,0.64746,0.64746,0.63574,0.6123,0.56494,0.58252,0.55713,0.58154,0.5293,0.54102,0.51465,0.55762,0.55859,0.58789,0.57812,0.60938,0.62988,0.60693,0.60645,0.58789,0.59668,0.58301,0.5625,0.60889,0.60254,0.62012,0.59668,0.60693,0.60352,0.62402,0.60693,0.61914,0.58008,0.5459,0.59766,0.59912,0.60645,0.56494,0.60059,0.60352,0.55078,0.57275,0.59814,0.5918,0.61035,0.58789,0.60645,0.58936,0.60791,0.62598,0.60693,0.58252
0.22949,0.22607,0.22656,0.22998,0.23486,0.22803,0.2251,0.22607,0.229,0.23193,0.22998,0.22949,0.229,0.22852,0.23633,0.22998,0.23145,0.23682,0.22705,0.22949,0.24219,0.23389,0.24951,0.23926,0.23535,0.23535,0.229,0.2334,0.25928,0.23633,0.2666,0.24756,0.24805,0.24268,0.23682,0.25879,0.24512,0.23682,0.24365,0.24463,0.27197,0.27686,0.26172,0.29248,0.27393,0.30811,0.27783,0.26074,0.27686,0.27393,0.24365,0.25146,0.25684,0.28271,0.32324,0.29834,0.31445,0.2959,0.30957,0.34033,0.33057,0.27832,0.32324,0.27881,0.26562,0.25195,0.26709,0.32568,0.2793,0.33398,0.38037,0.39893,0.33984,0.37793,0.31836,0.36914,0.41602,0.42871,0.43311,0.33252,0.35352,0.31006,0.37305,0.37158,0.28711,0.30469,0.33887,0.30078,0.30762,0.36475,0.33838,0.31543,0.33545,0.36279,0.36621,0.44873,0.4502,0.47656,0.48682,0.42871,0.46777,0.48047,0.41162,0.45752,0.46436,0.47705,0.48047,0.48193,0.50781,0.479,0.46826,0.43066,0.41162,0.37939,0.44043,0.45898,0.48926,0.45264,0.50586,0.5459,0.55176,0.47217,0.48828,0.54102,0.5791,0.55078,0.59912,0.57275,0.50488,0.50098,0.46582,0.44043,0.54736,0.50195,0.47314,0.55762,0.51221,0.4834,0.46436,0.54736,0.56055,0.5376,0.57812,0.48047,0.5791,0.51465,0.47461,0.55078,0.55518,0.46826,0.4375,0.44434,0.55518,0.50781,0.52246,0.49219,0.50195,0.5293,0.46973,0.42188,0.47314,0.45117,0.4668,0.5166,0.50781,0.56396,0.56738,0.55518,0.51807,0.51221,0.5293,0.57422,0.58301,0.4834,0.46191,0.45947,0.45508,0.45996,0.46973,0.4375,0.53076,0.54395,0.60352,0.54395,0.52344,0.51074,0.58008,0.53711,0.59473,0.57031,0.51172,0.58252,0.59375,0.54736,0.55273,0.52686,0.48193,0.55469,0.52832,0.53516,0.50537,0.57129,0.63086,0.60059,0.52246,0.54736,0.61914,0.59814,0.53223,0.58789,0.55469,0.54883,0.5293,0.58594,0.47314,0.53516,0.45898,0.5332,0.44043,0.40723,0.45361,0.45117,0.41504,0.44873,0.53857,0.48535,0.56494,0.52539,0.57373,0.54004,0.58887,0.60547,0.60156,0.6333,0.63477,0.63574,0.63281,0.60889,0.58398,0.61572,0.64111,0.62695,0.65186,0.64355,0.62207,0.62207,0.61914,0.60938,0.61328,0.6333,0.63428,0.63672,0.6167,0.62402,0.62012,0.60254,0.62402,0.60254,0.62988,0.60547,0.61426,0.64209,0.61914,0.6499,0.6499,0.6377,0.60693,0.62598,0.63672,0.64062,0.6167,0.63965,0.6123,0.62793,0.62305,0.61572,0.61523,0.64453,0.62451,0.6377,0.6377,0.64307,0.64062,0.65234,0.64746,0.64307,0.63574,0.64551,0.64111,0.61816,0.63867,0.60889,0.5957,0.62695,0.6377,0.64648,0.6377,0.65088,0.64941,0.63281,0.65332,0.65625,0.64307,0.6543,0.63477,0.64307,0.64551,0.61816,0.62402,0.64209,0.60449,0.64453,0.64062,0.62109,0.62451,0.64355,0.62402,0.61328,0.63574,0.63184,0.62109,0.62988,0.62988,0.63428,0.63428,0.64453,0.62451,0.65234,0.62695,0.61719,0.59766,0.58936,0.60645,0.53076,0.57031,0.58594,0.5293,0.52832,0.5249,0.55176,0.59473,0.57715,0.59912,0.60645,0.59814,0.58301,0.59668,0.57812,0.6123,0.57031,0.61426,0.62695,0.60059,0.60889,0.58105,0.59033,0.6167,0.5957,0.60547,0.61914,0.54736,0.58594,0.55078,0.53711,0.58154,0.57031,0.60547,0.57227,0.60547,0.59912,0.56641,0.60449,0.60352,0.58594,0.5918,0.60449,0.60352,0.58496,0.58398
0.22852,0.22607,0.22656,0.22705,0.22656,0.22705,0.22656,0.22607,0.22705,0.22998,0.23193,0.23242,0.24121,0.2417,0.23291,0.24072,0.22949,0.22607,0.22852,0.2334,0.23828,0.23193,0.24268,0.22998,0.22998,0.23535,0.24268,0.23633,0.24023,0.25244,0.25684,0.2583,0.23926,0.23877,0.24902,0.23926,0.24902,0.25684,0.23682,0.24316,0.25586,0.26221,0.25244,0.24854,0.28516,0.26416,0.26221,0.25537,0.26123,0.26953,0.26367,0.28174,0.29004,0.3125,0.30566,0.29688,0.31689,0.33789,0.34668,0.2998,0.32275,0.32324,0.32227,0.28076,0.28564,0.27148,0.27051,0.25781,0.30811,0.29785,0.29932,0.38086,0.3877,0.39062,0.37305,0.31934,0.35352,0.33252,0.40479,0.37695,0.36914,0.4209,0.38135,0.31396,0.2998,0.35986,0.33594,0.3374,0.31152,0.30469,0.28857,0.35938,0.35205,0.32715,0.35156,0.35107,0.41357,0.44336,0.4624,0.45752,0.41602,0.44043,0.43994,0.45996,0.43799,0.45703,0.50928,0.49707,0.53711,0.48828,0.50684,0.51074,0.44189,0.46484,0.39111,0.42188,0.44922,0.51855,0.46826,0.47803,0.5249,0.51367,0.48486,0.57129,0.56152,0.57031,0.56934,0.53223,0.50928,0.47412,0.44043,0.51367,0.47656,0.53857,0.50195,0.42627,0.45605,0.50342,0.50879,0.5498,0.5918,0.55615,0.5293,0.54395,0.48584,0.41602,0.47705,0.52441,0.51172,0.44141,0.43652,0.48926,0.49463,0.57617,0.54883,0.50391,0.51074,0.45703,0.44629,0.41748,0.45459,0.48047,0.49805,0.44385,0.52441,0.51367,0.54395,0.56641,0.58594,0.59131,0.6167,0.62402,0.56738,0.52979,0.53711,0.48828,0.48145,0.54004,0.49414,0.51172,0.54297,0.55518,0.55957,0.52637,0.51172,0.50391,0.54395,0.59277,0.59033,0.56396,0.56738,0.60156,0.58105,0.58008,0.55518,0.53857,0.4834,0.53613,0.53516,0.55762,0.55371,0.58594,0.60449,0.60547,0.58887,0.55176,0.6123,0.54395,0.55176,0.5498,0.58398,0.52344,0.5625,0.53076,0.49219,0.53516,0.51855,0.50293,0.46973,0.48828,0.45117,0.40479,0.44873,0.49561,0.44922,0.46338,0.54395,0.52637,0.55859,0.55371,0.5332,0.5752,0.59277,0.60791,0.62207,0.63867,0.63428,0.6167,0.60938,0.60254,0.63086,0.63477,0.64941,0.63867,0.64111,0.64062,0.62695,0.62891,0.61426,0.59277,0.61816,0.60645,0.61133,0.60059,0.57227,0.5957,0.59912,0.58691,0.60352,0.60547,0.63281,0.60889,0.62402,0.64209,0.6377,0.64551,0.62695,0.64111,0.62695,0.60449,0.61523,0.62549,0.63281,0.60059,0.6001,0.60547,0.61133,0.60938,0.63477,0.64648,0.64307,0.64453,0.65527,0.6499,0.64453,0.63281,0.61572,0.60938,0.62988,0.62012,0.64209,0.62988,0.61426,0.60156,0.62549,0.64844,0.64307,0.65088,0.63574,0.62451,0.63672,0.62793,0.64355,0.65088,0.6333,0.63672,0.61914,0.62012,0.61572,0.62402,0.59766,0.59668,0.60938,0.62549,0.58936,0.58936,0.62109,0.62305,0.64355,0.65625,0.64453,0.65186,0.62207,0.62891,0.63184,0.64453,0.63184,0.63672,0.63477,0.64307,0.6333,0.57812,0.58154,0.56055,0.52246,0.52734,0.55078,0.54736,0.55371,0.53613,0.56494,0.55371,0.56152,0.58301,0.57812,0.5918,0.60059,0.57373,0.59131,0.62012,0.61328,0.60889,0.57031,0.5625,0.61035,0.56494,0.58789,0.55713,0.5957,0.60547,0.58887,0.58398,0.54834,0.57812,0.52441,0.51611,0.57422,0.60938,0.60059,0.57715,0.59912,0.59912,0.5918,0.60938,0.60938,0.61816,0.61426,0.57422,0.57129
0.22803,0.22998,0.22754,0.22559,0.22754,0.22803,0.22607,0.22852,0.22803,0.22607,0.23535,0.23486,0.23584,0.24219,0.23047,0.23096,0.23633,0.22852,0.23047,0.23047,0.23975,0.23438,0.24707,0.23291,0.23584,0.23486,0.2373,0.23682,0.23438,0.26123,0.27051,0.24463,0.24756,0.26758,0.25635,0.23779,0.23242,0.23291,0.24805,0.25391,0.24609,0.23926,0.25195,0.25635,0.28613,0.28467,0.24658,0.26611,0.25879,0.27783,0.2876,0.31641,0.29541,0.29541,0.27148,0.2998,0.30225,0.34619,0.34082,0.37695,0.32227,0.3042,0.32275,0.34912,0.35352,0.28564,0.25879,0.32324,0.32324,0.32715,0.33838,0.30957,0.38135,0.4043,0.4375,0.34863,0.35107,0.35205,0.43311,0.36865,0.37305,0.38135,0.30713,0.30322,0.31836,0.33398,0.34912,0.33008,0.3252,0.30127,0.33594,0.30371,0.31494,0.31982,0.33154,0.41602,0.39062,0.39844,0.42969,0.45459,0.45703,0.40283,0.40918,0.40723,0.45215,0.51953,0.45703,0.5293,0.48145,0.54004,0.47119,0.41797,0.521,0.4668,0.46582,0.37744,0.45508,0.40186,0.46484,0.46777,0.48779,0.47266,0.44873,0.47461,0.53516,0.58252,0.55957,0.52344,0.55762,0.5,0.45459,0.43213,0.52979,0.47412,0.48926,0.54199,0.36621,0.45361,0.55078,0.56348,0.6123,0.59131,0.51221,0.4502,0.56055,0.43213,0.5166,0.43457,0.5,0.42285,0.43164,0.5293,0.42871,0.46582,0.58154,0.49316,0.53857,0.46582,0.55371,0.44238,0.44434,0.47412,0.53418,0.50879,0.54736,0.5957,0.57812,0.59277,0.5166,0.60449,0.59131,0.54883,0.54639,0.52734,0.59277,0.54883,0.52051,0.4458,0.5498,0.52344,0.58252,0.51855,0.52637,0.48193,0.52979,0.58008,0.56055,0.56543,0.58496,0.62891,0.60693,0.59033,0.59277,0.58936,0.59912,0.5625,0.55518,0.48145,0.58105,0.5166,0.54395,0.61816,0.54883,0.60352,0.54736,0.5459,0.60938,0.56348,0.60352,0.57129,0.57812,0.5791,0.51855,0.54492,0.53516,0.49219,0.55176,0.51465,0.45361,0.45215,0.53711,0.51367,0.43213,0.45947,0.45947,0.50586,0.56494,0.53418,0.51562,0.55518,0.48828,0.59912,0.57617,0.59033,0.61914,0.62598,0.63672,0.64111,0.62988,0.62793,0.63574,0.63086,0.64453,0.64844,0.63672,0.62695,0.58398,0.59814,0.57227,0.61426,0.63477,0.63281,0.62695,0.59912,0.62012,0.62598,0.61523,0.62109,0.62012,0.61816,0.62598,0.62451,0.6167,0.63281,0.63281,0.64307,0.59912,0.60938,0.58936,0.59473,0.62305,0.62451,0.60645,0.60156,0.61523,0.60791,0.62598,0.63477,0.61328,0.63281,0.6167,0.6499,0.65088,0.63281,0.65234,0.62109,0.62549,0.63477,0.62549,0.64453,0.63477,0.62451,0.60645,0.62891,0.62402,0.62207,0.62207,0.64453,0.64648,0.63672,0.62305,0.61035,0.60791,0.62549,0.61816,0.61426,0.64209,0.63672,0.56836,0.60645,0.60352,0.62109,0.62402,0.5957,0.62891,0.6123,0.61523,0.6333,0.63574,0.63184,0.60693,0.60889,0.63574,0.59033,0.6377,0.6333,0.63672,0.60791,0.6377,0.6333,0.62451,0.58936,0.60791,0.58887,0.56738,0.55762,0.51172,0.54492,0.59131,0.56055,0.60156,0.56934,0.58008,0.5791,0.57812,0.57617,0.58789,0.56738,0.58301,0.54736,0.58105,0.57422,0.55176,0.57129,0.57275,0.58301,0.61133,0.60693,0.60059,0.55762,0.53857,0.53711,0.56641,0.52197,0.53711,0.51318,0.58594,0.56934,0.60449,0.59277,0.58691,0.58008,0.6001,0.57617,0.62305,0.61914,0.62207,0.59375,0.55371
0.22607,0.22852,0.23047,0.23096,0.22607,0.22607,0.22754,0.22998,0.22656,0.23096,0.23047,0.23193,0.24121,0.2417,0.23438,0.23438,0.23291,0.23047,0.24072,0.23779,0.24365,0.24756,0.23193,0.23389,0.229,0.22754,0.23242,0.24463,0.23877,0.24951,0.25293,0.24072,0.25781,0.26221,0.25244,0.23926,0.23486,0.23779,0.25391,0.24951,0.25098,0.24463,0.25684,0.26025,0.28564,0.25635,0.25879,0.28516,0.2959,0.29541,0.31445,0.3125,0.29004,0.27686,0.28857,0.31787,0.30615,0.35889,0.35205,0.31543,0.33936,0.31006,0.30811,0.3208,0.35205,0.32275,0.29834,0.30225,0.30518,0.28125,0.31689,0.40283,0.40527,0.40869,0.39307,0.37939,0.35254,0.35107,0.39014,0.37793,0.31543,0.27148,0.29639,0.25293,0.26709,0.29541,0.3374,0.29053,0.3208,0.34473,0.3125,0.32617,0.32666,0.3335,0.31445,0.32617,0.41064,0.39014,0.45605,0.44336,0.41357,0.40723,0.40381,0.43018,0.4668,0.51172,0.4668,0.46484,0.49609,0.45459,0.41162,0.49414,0.49414,0.44922,0.46436,0.4585,0.40576,0.46191,0.47461,0.51611,0.50488,0.54395,0.47803,0.47949,0.57031,0.53711,0.5332,0.54883,0.57373,0.57422,0.479,0.47803,0.51758,0.47217,0.53857,0.50586,0.41455,0.48584,0.52197,0.56836,0.6001,0.57422,0.49707,0.4834,0.50928,0.44629,0.44385,0.4502,0.48291,0.53516,0.45508,0.41211,0.49023,0.48438,0.55371,0.52832,0.5,0.47217,0.54395,0.47607,0.47705,0.47412,0.44873,0.53125,0.60156,0.57715,0.5957,0.60547,0.55713,0.6123,0.57373,0.49316,0.50488,0.56396,0.60059,0.56348,0.48682,0.46924,0.53418,0.58301,0.60645,0.59277,0.52637,0.56152,0.53955,0.59473,0.60059,0.59766,0.63184,0.60645,0.61572,0.55762,0.55469,0.55371,0.55762,0.59912,0.58691,0.52246,0.54004,0.53711,0.59814,0.6123,0.54004,0.58789,0.5293,0.55713,0.60938,0.62549,0.59131,0.56641,0.54492,0.5293,0.53076,0.4624,0.46973,0.51855,0.54639,0.5498,0.44629,0.4834,0.54736,0.48047,0.41895,0.4834,0.4834,0.54883,0.53613,0.50781,0.50488,0.53711,0.51562,0.5459,0.60254,0.61523,0.61133,0.62695,0.62207,0.63477,0.64209,0.61914,0.61133,0.60547,0.64062,0.62305,0.59375,0.61133,0.59131,0.59668,0.58105,0.60889,0.62988,0.62793,0.60352,0.63184,0.62598,0.6167,0.62012,0.62988,0.62988,0.6377,0.63672,0.64111,0.6167,0.62549,0.6333,0.59912,0.5918,0.57715,0.58252,0.60645,0.63477,0.64111,0.60938,0.59033,0.61572,0.59766,0.6123,0.63086,0.61914,0.6001,0.62305,0.63428,0.64062,0.64941,0.64307,0.6333,0.62793,0.63672,0.62207,0.61719,0.62402,0.5918,0.58301,0.57275,0.60645,0.6167,0.63184,0.61426,0.63428,0.60791,0.60693,0.59912,0.60889,0.60645,0.61719,0.64551,0.64062,0.6123,0.58594,0.60791,0.62402,0.58496,0.5752,0.59473,0.62012,0.58105,0.58252,0.59912,0.62549,0.63086,0.60889,0.58594,0.61328,0.60059,0.60254,0.57422,0.60889,0.63428,0.62695,0.62988,0.62109,0.59033,0.60352,0.58691,0.62109,0.60449,0.52441,0.54736,0.58887,0.58789,0.57275,0.56543,0.58691,0.5376,0.56055,0.5459,0.58154,0.55469,0.55957,0.58154,0.55762,0.51807,0.53711,0.57129,0.58301,0.53857,0.57617,0.5957,0.57422,0.5625,0.5332,0.57031,0.53418,0.50977,0.48779,0.50342,0.53516,0.58936,0.60889,0.61816,0.58154,0.61426,0.60449,0.57422,0.59912,0.60938,0.60938,0.62891,0.59912
0.22607,0.22754,0.2334,0.23193,0.22998,0.229,0.229,0.23047,0.22852,0.23486,0.22803,0.23584,0.24805,0.23389,0.23193,0.23145,0.23096,0.23486,0.23291,0.24463,0.25879,0.23047,0.23047,0.22852,0.23389,0.23242,0.22852,0.23145,0.23486,0.24756,0.25488,0.26465,0.26855,0.27002,0.25195,0.25195,0.24365,0.23779,0.23975,0.24512,0.24072,0.27246,0.25195,0.26367,0.31641,0.27344,0.2583,0.28125,0.30176,0.30322,0.29785,0.30225,0.28516,0.29004,0.30029,0.3125,0.3291,0.32666,0.36816,0.34717,0.36621,0.35742,0.30127,0.38184,0.39404,0.36475,0.2832,0.33252,0.33398,0.29248,0.29297,0.31543,0.30957,0.41553,0.3833,0.3291,0.32129,0.4043,0.40283,0.3042,0.30273,0.28467,0.28467,0.30273,0.31934,0.32422,0.35107,0.37549,0.30811,0.3418,0.2749,0.32129,0.31396,0.28857,0.31934,0.32227,0.36621,0.41846,0.4541,0.43848,0.45605,0.38037,0.38721,0.40137,0.4585,0.4707,0.48145,0.49609,0.48535,0.41016,0.39795,0.44775,0.48486,0.45996,0.51221,0.40576,0.38379,0.41406,0.53223,0.44922,0.55176,0.5293,0.45996,0.5459,0.58008,0.50586,0.48926,0.4834,0.49463,0.5,0.49805,0.44922,0.55176,0.52441,0.51562,0.47705,0.51074,0.55371,0.57031,0.5625,0.58398,0.6167,0.57373,0.57812,0.46094,0.55859,0.55078,0.49951,0.43848,0.43018,0.36426,0.44092,0.42627,0.44775,0.58154,0.56494,0.54199,0.51855,0.52832,0.55859,0.5459,0.49707,0.5498,0.51953,0.59473,0.54004,0.58691,0.51465,0.51465,0.48486,0.49951,0.46973,0.54297,0.58691,0.59277,0.57812,0.54395,0.49219,0.521,0.55469,0.56641,0.56152,0.56396,0.57812,0.50586,0.57275,0.56641,0.58789,0.64648,0.60547,0.60254,0.55762,0.60449,0.56543,0.57812,0.57031,0.58008,0.57227,0.58398,0.62012,0.56396,0.57275,0.57422,0.52197,0.50098,0.58301,0.58252,0.57031,0.55371,0.54102,0.46436,0.54297,0.50342,0.51367,0.396,0.4082,0.49951,0.48438,0.48047,0.51611,0.50879,0.48779,0.43311,0.47461,0.44189,0.4668,0.51318,0.52734,0.47803,0.5459,0.52051,0.56055,0.55078,0.56738,0.62598,0.60449,0.64648,0.64746,0.63184,0.63965,0.6167,0.63477,0.60059,0.59375,0.60547,0.56152,0.60791,0.58154,0.58789,0.60693,0.61572,0.61133,0.6001,0.60889,0.62451,0.63428,0.59033,0.58936,0.62451,0.60352,0.6167,0.62598,0.60791,0.60156,0.62402,0.58301,0.54883,0.55762,0.59912,0.57715,0.62891,0.62549,0.62451,0.5918,0.62207,0.60938,0.58301,0.61328,0.60254,0.61572,0.58398,0.60938,0.6377,0.63281,0.63281,0.64111,0.62451,0.59766,0.58398,0.63086,0.61426,0.61816,0.61572,0.58594,0.63574,0.60645,0.63281,0.6167,0.62305,0.61719,0.5918,0.60254,0.61572,0.59277,0.63477,0.63867,0.62695,0.60449,0.56738,0.58594,0.63867,0.6001,0.61816,0.58789,0.5918,0.62305,0.57715,0.60449,0.64551,0.63672,0.61035,0.62012,0.57031,0.61426,0.57422,0.59766,0.56396,0.59912,0.57129,0.61035,0.63184,0.63281,0.62305,0.63428,0.62305,0.56641,0.52246,0.5498,0.5459,0.60693,0.58594,0.57812,0.62305,0.57812,0.60254,0.61572,0.58691,0.57422,0.58496,0.58594,0.56055,0.55078,0.56641,0.52441,0.58789,0.58301,0.54395,0.53711,0.56738,0.53711,0.49316,0.53076,0.50391,0.49951,0.48145,0.48926,0.58301,0.58496,0.56152,0.60352,0.55518,0.58301,0.5498,0.60693,0.58008,0.59375,0.58105,0.60889,0.56934
0.22607,0.22754,0.22803,0.22705,0.23145,0.23193,0.24023,0.23047,0.2334,0.23682,0.2334,0.23291,0.23877,0.24268,0.23486,0.23047,0.22803,0.23047,0.23584,0.23291,0.24463,0.24072,0.23291,0.23047,0.22949,0.22803,0.23047,0.22998,0.23779,0.23682,0.23535,0.24463,0.25928,0.26318,0.2583,0.25146,0.23486,0.23877,0.24023,0.23682,0.25342,0.2627,0.2627,0.2793,0.29834,0.29541,0.28564,0.29248,0.28613,0.2915,0.32129,0.31348,0.34277,0.33887,0.30566,0.35449,0.33691,0.35059,0.34814,0.35547,0.34277,0.30127,0.32031,0.37305,0.37549,0.32715,0.3125,0.32666,0.29102,0.29492,0.32422,0.31494,0.31152,0.34229,0.36377,0.41064,0.36426,0.39502,0.35986,0.32764,0.28613,0.31104,0.29834,0.29688,0.30518,0.32617,0.34912,0.36426,0.32129,0.33398,0.2915,0.29346,0.29248,0.31348,0.30273,0.31641,0.36572,0.396,0.35693,0.36279,0.42676,0.38867,0.37646,0.37256,0.41895,0.41016,0.41748,0.48926,0.47314,0.41992,0.41992,0.45508,0.43555,0.46924,0.46484,0.4502,0.49365,0.54883,0.49414,0.4917,0.53955,0.55371,0.47656,0.54736,0.52979,0.51562,0.47412,0.52051,0.51758,0.44922,0.43604,0.40576,0.48438,0.55615,0.5376,0.50781,0.50098,0.5332,0.58887,0.61523,0.6167,0.6001,0.58252,0.52051,0.49561,0.47705,0.55371,0.55762,0.49756,0.44873,0.39795,0.43896,0.45996,0.51807,0.52734,0.58887,0.5791,0.57275,0.58594,0.51855,0.49707,0.54736,0.60352,0.60938,0.58936,0.57812,0.56641,0.5249,0.48682,0.45264,0.4707,0.45996,0.56055,0.60449,0.59033,0.55176,0.58936,0.55859,0.54883,0.59277,0.60645,0.53857,0.52979,0.52539,0.521,0.56494,0.60938,0.63574,0.63184,0.62891,0.61426,0.59668,0.57373,0.58936,0.56738,0.54395,0.60547,0.6333,0.6333,0.6167,0.59814,0.6123,0.58496,0.56836,0.55859,0.59131,0.54297,0.51562,0.57031,0.5459,0.4668,0.39844,0.4541,0.38477,0.3877,0.4375,0.45117,0.47656,0.49805,0.50928,0.53223,0.53857,0.45898,0.41992,0.47705,0.48145,0.53857,0.52051,0.54199,0.5332,0.5293,0.51074,0.54004,0.59375,0.62695,0.61426,0.6377,0.62402,0.64209,0.63086,0.63184,0.60693,0.59131,0.61035,0.57617,0.58594,0.58594,0.58105,0.60889,0.60352,0.59668,0.58887,0.60449,0.61328,0.62305,0.60889,0.60059,0.61133,0.58496,0.61035,0.60889,0.60254,0.61426,0.59375,0.59375,0.53857,0.55078,0.58594,0.58496,0.59912,0.58008,0.60352,0.61914,0.62305,0.62451,0.63086,0.59473,0.59131,0.58936,0.60693,0.59375,0.58496,0.61426,0.62598,0.6333,0.63477,0.61328,0.62451,0.59766,0.59912,0.62207,0.62695,0.6123,0.61328,0.62891,0.62695,0.61328,0.60693,0.58594,0.61523,0.59131,0.56934,0.58008,0.57275,0.61426,0.60938,0.62402,0.60791,0.60889,0.63184,0.62451,0.61572,0.61572,0.5957,0.58252,0.59912,0.59766,0.58594,0.63281,0.61719,0.61035,0.61523,0.57617,0.56055,0.58154,0.56641,0.52979,0.58789,0.56641,0.56738,0.60693,0.60791,0.62598,0.5752,0.58252,0.59033,0.57812,0.60059,0.58154,0.60156,0.56494,0.57227,0.6123,0.62695,0.60693,0.57422,0.60791,0.57422,0.55859,0.59033,0.57812,0.55957,0.51221,0.53223,0.58594,0.5498,0.56934,0.54199,0.50098,0.52344,0.51807,0.52979,0.54004,0.49463,0.51172,0.5625,0.57422,0.56494,0.5459,0.59277,0.58008,0.57129,0.55078,0.53857,0.5459,0.5332,0.57715,0.58105,0.55713
0.22607,0.23047,0.22705,0.22949,0.22949,0.23584,0.23438,0.23047,0.23047,0.23047,0.22705,0.23145,0.23633,0.23682,0.22949,0.23047,0.22754,0.22656,0.23047,0.24609,0.25293,0.24658,0.24219,0.23047,0.24219,0.23193,0.23438,0.24561,0.24854,0.23926,0.23877,0.26904,0.25195,0.25537,0.24707,0.25488,0.2334,0.24268,0.25488,0.25195,0.25293,0.27295,0.27734,0.26221,0.26221,0.29199,0.271,0.30176,0.2627,0.31348,0.29492,0.33496,0.35449,0.29834,0.29688,0.35352,0.37061,0.32715,0.34473,0.3457,0.32861,0.33447,0.35352,0.37256,0.34717,0.33057,0.29102,0.30322,0.28662,0.28809,0.3252,0.33984,0.36426,0.33887,0.4043,0.31641,0.36865,0.34619,0.39209,0.34424,0.33398,0.31104,0.27197,0.33643,0.2959,0.29785,0.32764,0.37305,0.33252,0.28174,0.28027,0.27881,0.31689,0.34229,0.2959,0.35938,0.3335,0.32129,0.31982,0.35547,0.4624,0.36621,0.42578,0.40088,0.38672,0.3833,0.42041,0.44434,0.38623,0.44189,0.4541,0.39502,0.49365,0.46582,0.4165,0.47119,0.42627,0.50586,0.53076,0.48682,0.56494,0.55371,0.5,0.54883,0.49463,0.47949,0.4834,0.5293,0.54004,0.45264,0.49316,0.43896,0.53711,0.50342,0.46338,0.45264,0.55176,0.58105,0.58398,0.58594,0.58789,0.57617,0.58154,0.52344,0.49707,0.55713,0.55176,0.57373,0.44141,0.4707,0.479,0.4502,0.44434,0.51318,0.55371,0.55518,0.57617,0.57275,0.61914,0.58594,0.5293,0.54736,0.53857,0.55957,0.52246,0.56641,0.62109,0.55078,0.48779,0.50488,0.51221,0.55078,0.50684,0.54883,0.5376,0.55615,0.58789,0.60645,0.5625,0.59473,0.59277,0.5752,0.52686,0.51221,0.50781,0.56055,0.62695,0.62891,0.64648,0.64111,0.62451,0.60449,0.59375,0.61426,0.6123,0.60254,0.58301,0.5752,0.56543,0.58887,0.59912,0.63477,0.58008,0.56396,0.56934,0.56934,0.52734,0.50488,0.56934,0.53076,0.5293,0.53223,0.47119,0.47559,0.38086,0.44385,0.50391,0.46436,0.50684,0.49219,0.58252,0.49854,0.40625,0.49463,0.48828,0.48682,0.54736,0.47803,0.5625,0.49365,0.50293,0.54736,0.51611,0.59814,0.59668,0.59473,0.61426,0.60693,0.6123,0.63574,0.62207,0.59131,0.60791,0.59766,0.56641,0.58594,0.59912,0.56836,0.59375,0.57227,0.59375,0.57129,0.60449,0.59814,0.60645,0.60254,0.58594,0.58105,0.57715,0.60938,0.60693,0.58008,0.62451,0.6123,0.57031,0.6001,0.58691,0.56738,0.57617,0.60547,0.58691,0.56641,0.57275,0.62402,0.59375,0.60693,0.5625,0.58789,0.5625,0.61914,0.61426,0.60791,0.59033,0.59277,0.61719,0.5957,0.62109,0.58789,0.62695,0.61035,0.62793,0.59473,0.61035,0.59814,0.58887,0.60449,0.59766,0.60889,0.56396,0.6001,0.60449,0.57812,0.56641,0.61816,0.59277,0.6123,0.59375,0.60645,0.57715,0.58398,0.62988,0.5957,0.59375,0.62207,0.55762,0.58008,0.56152,0.56836,0.61914,0.58789,0.59033,0.60254,0.59277,0.58691,0.58301,0.58301,0.55078,0.60352,0.54736,0.59277,0.58936,0.58594,0.59033,0.62549,0.61572,0.56494,0.59277,0.58887,0.60938,0.56738,0.59375,0.60156,0.61426,0.61572,0.60791,0.58789,0.60449,0.58008,0.5459,0.56836,0.54883,0.55762,0.54297,0.49707,0.53711,0.55762,0.59912,0.52344,0.46436,0.52832,0.48291,0.55957,0.55713,0.55957,0.5249,0.56152,0.54492,0.5293,0.55762,0.58252,0.54639,0.55176,0.49707,0.52734,0.5791,0.55762,0.58252,0.58252,0.57715
0.22656,0.22754,0.23096,0.23486,0.23242,0.22998,0.23193,0.22656,0.22705,0.22607,0.22803,0.22754,0.23779,0.23242,0.23584,0.229,0.22607,0.22607,0.23047,0.23291,0.24951,0.25635,0.23877,0.24463,0.24365,0.23633,0.24805,0.26172,0.24658,0.27295,0.26172,0.24658,0.25879,0.23975,0.23779,0.2373,0.24805,0.26074,0.25635,0.27344,0.25146,0.24512,0.26123,0.27246,0.26318,0.25586,0.28955,0.28662,0.2627,0.26465,0.30371,0.30518,0.30469,0.33789,0.34375,0.32568,0.33154,0.33838,0.36035,0.31836,0.33594,0.34961,0.36133,0.39014,0.36084,0.36768,0.30469,0.2876,0.33398,0.3125,0.2876,0.30127,0.36475,0.39209,0.3833,0.35938,0.30811,0.32031,0.33984,0.35107,0.3291,0.2793,0.26758,0.28076,0.34766,0.35547,0.33154,0.33496,0.31836,0.26953,0.27783,0.2998,0.32373,0.30908,0.34668,0.32715,0.35352,0.36426,0.36475,0.4043,0.40625,0.40088,0.38135,0.36328,0.39941,0.4292,0.36768,0.35596,0.38477,0.39844,0.45117,0.47461,0.45215,0.4458,0.43408,0.40332,0.4458,0.5293,0.50098,0.48145,0.5459,0.50098,0.56055,0.49854,0.48291,0.49756,0.55518,0.53516,0.53516,0.50391,0.46777,0.45117,0.53857,0.55713,0.49316,0.46826,0.48828,0.52637,0.60938,0.59277,0.58887,0.56934,0.50977,0.54297,0.54492,0.58008,0.5625,0.49756,0.50781,0.54639,0.46436,0.46338,0.44629,0.44287,0.53516,0.58887,0.57129,0.55176,0.58398,0.49951,0.50586,0.5498,0.54199,0.58252,0.56396,0.61914,0.59912,0.59766,0.56641,0.55176,0.53516,0.48926,0.50977,0.48438,0.55469,0.5957,0.57715,0.5957,0.60254,0.61914,0.58398,0.55469,0.59668,0.55957,0.59033,0.57129,0.58398,0.63672,0.63428,0.6167,0.63477,0.5791,0.57715,0.56934,0.61816,0.62891,0.62891,0.61035,0.56641,0.58594,0.60889,0.63672,0.62012,0.55713,0.51465,0.52246,0.50684,0.57617,0.58301,0.57715,0.49951,0.55713,0.50537,0.52979,0.48828,0.50098,0.46094,0.48047,0.52637,0.58496,0.57275,0.46729,0.4458,0.46973,0.4585,0.49561,0.49463,0.51611,0.49854,0.55859,0.54492,0.55078,0.54004,0.5498,0.55713,0.60352,0.60693,0.62891,0.61719,0.62988,0.60059,0.57812,0.58008,0.55762,0.57617,0.58105,0.54736,0.57617,0.56934,0.53223,0.56934,0.59473,0.60449,0.61914,0.60938,0.59473,0.61572,0.60449,0.58252,0.58105,0.59668,0.6123,0.60254,0.59131,0.59277,0.57422,0.6123,0.62598,0.60889,0.58789,0.5918,0.60938,0.58594,0.5957,0.59766,0.61572,0.59375,0.56836,0.56641,0.59033,0.62402,0.62793,0.58691,0.5957,0.59473,0.61426,0.60254,0.62402,0.62891,0.5918,0.59473,0.59375,0.57715,0.55957,0.59668,0.61572,0.59814,0.62109,0.60791,0.59277,0.60059,0.62891,0.61572,0.58301,0.57812,0.54395,0.58008,0.58594,0.58252,0.6001,0.60938,0.62402,0.60938,0.55713,0.5752,0.58789,0.59277,0.60254,0.56738,0.55957,0.59473,0.59668,0.62451,0.58154,0.58691,0.62109,0.59814,0.60693,0.58887,0.60645,0.6167,0.59766,0.5918,0.61816,0.60547,0.60547,0.57422,0.60449,0.5957,0.58252,0.60352,0.62793,0.61914,0.59375,0.61572,0.57031,0.57422,0.5918,0.54004,0.5293,0.51221,0.48047,0.49756,0.43408,0.47461,0.50684,0.58887,0.55518,0.51074,0.51318,0.5498,0.59668,0.58008,0.56934,0.5752,0.59912,0.56934,0.58887,0.5498,0.5918,0.58252,0.56494,0.52051,0.53516,0.53711,0.5918,0.60889,0.59912,0.59033
0.22754,0.22754,0.22949,0.23291,0.22949,0.22705,0.22803,0.22656,0.22803,0.23047,0.23047,0.23438,0.23047,0.22949,0.22705,0.22607,0.229,0.22607,0.2334,0.22754,0.23535,0.2417,0.23926,0.24609,0.23975,0.24805,0.24609,0.24902,0.23926,0.26904,0.25439,0.26904,0.2417,0.24756,0.23926,0.23389,0.23828,0.26562,0.26562,0.27539,0.24121,0.24463,0.24658,0.26514,0.25488,0.26416,0.29346,0.29297,0.27783,0.27441,0.32129,0.32812,0.29248,0.31787,0.3125,0.35547,0.34619,0.31006,0.29248,0.30469,0.33398,0.37598,0.37207,0.33252,0.28369,0.31201,0.28223,0.29785,0.36182,0.37158,0.32373,0.34814,0.40381,0.36865,0.38379,0.33154,0.31006,0.28857,0.32715,0.30371,0.32617,0.29346,0.32959,0.31396,0.35693,0.30371,0.29395,0.2832,0.3252,0.30566,0.2915,0.31787,0.33643,0.36133,0.36475,0.34521,0.37988,0.40723,0.34473,0.39453,0.42285,0.36865,0.43018,0.42236,0.37402,0.39844,0.31494,0.41797,0.39941,0.4668,0.45898,0.39648,0.47266,0.40039,0.50342,0.48193,0.44531,0.49707,0.50195,0.45996,0.54736,0.4917,0.47803,0.49316,0.50488,0.50879,0.56641,0.52246,0.54883,0.52051,0.45459,0.48145,0.51758,0.54883,0.49707,0.52637,0.50586,0.5376,0.55078,0.56396,0.55469,0.48535,0.51172,0.52246,0.48486,0.5459,0.5957,0.54199,0.54492,0.43799,0.40527,0.39551,0.4502,0.50879,0.48779,0.52832,0.53125,0.58008,0.58887,0.55371,0.53076,0.55371,0.4834,0.5332,0.5957,0.50879,0.58691,0.52734,0.5752,0.60156,0.6123,0.50879,0.56738,0.50781,0.5957,0.57422,0.56494,0.62451,0.6333,0.59766,0.6123,0.59033,0.61816,0.62598,0.58154,0.6167,0.6167,0.59473,0.58936,0.60449,0.62207,0.56396,0.62549,0.57422,0.60059,0.59912,0.62207,0.58252,0.58105,0.54639,0.61914,0.54639,0.57715,0.58252,0.57373,0.48438,0.4502,0.5332,0.50537,0.47705,0.53125,0.521,0.51611,0.44287,0.43799,0.40137,0.40723,0.45947,0.49561,0.55713,0.50684,0.52246,0.4248,0.50195,0.49414,0.54102,0.52734,0.56738,0.48047,0.5249,0.50391,0.56836,0.51758,0.56396,0.54102,0.59131,0.57422,0.59473,0.61133,0.59131,0.62109,0.60791,0.59668,0.60449,0.58398,0.59033,0.52344,0.56494,0.57715,0.56543,0.5332,0.58691,0.61719,0.60791,0.61426,0.60449,0.59131,0.57812,0.55859,0.56641,0.60889,0.57715,0.61572,0.61816,0.58398,0.60645,0.60938,0.61426,0.6167,0.60938,0.59033,0.57422,0.59912,0.58398,0.5752,0.58398,0.56494,0.57129,0.55518,0.62109,0.6377,0.61523,0.58398,0.6123,0.58301,0.62207,0.63281,0.62402,0.61133,0.6167,0.60059,0.59277,0.58008,0.59131,0.61914,0.61914,0.61133,0.60449,0.61328,0.62109,0.57373,0.56641,0.58496,0.55371,0.59912,0.56738,0.60889,0.60254,0.55762,0.55078,0.62109,0.57715,0.62695,0.62305,0.58252,0.62109,0.61426,0.56494,0.55518,0.60645,0.60156,0.61133,0.5957,0.59668,0.56738,0.61133,0.60791,0.6001,0.62012,0.62207,0.61523,0.63184,0.59131,0.61035,0.59033,0.61719,0.60352,0.60352,0.62012,0.60547,0.60059,0.62207,0.59277,0.63574,0.61914,0.59131,0.58252,0.58105,0.57422,0.55762,0.51221,0.53076,0.51367,0.46826,0.53711,0.55762,0.55762,0.51172,0.47461,0.56396,0.5957,0.58691,0.59814,0.55615,0.58594,0.56494,0.56738,0.57422,0.59375,0.56738,0.61523,0.54004,0.55518,0.56641,0.60254,0.61572,0.61328,0.60352,0.5625
0.22803,0.22803,0.22852,0.22656,0.22803,0.22607,0.22705,0.22656,0.22754,0.22998,0.22705,0.22754,0.22803,0.23145,0.22754,0.229,0.22852,0.229,0.22656,0.22803,0.23047,0.2334,0.23975,0.24219,0.23926,0.23877,0.24658,0.24365,0.25439,0.26025,0.24561,0.24805,0.25098,0.24365,0.23877,0.23486,0.24414,0.24268,0.26172,0.27783,0.25635,0.26416,0.25342,0.25195,0.27051,0.30811,0.29102,0.25781,0.26904,0.29053,0.28955,0.31787,0.31152,0.33057,0.3374,0.33398,0.31592,0.27539,0.29248,0.30127,0.32471,0.36865,0.33838,0.32324,0.28369,0.27783,0.27979,0.29102,0.32812,0.35889,0.36426,0.3418,0.35986,0.32617,0.31494,0.37256,0.34424,0.35938,0.31006,0.36133,0.32959,0.34131,0.36719,0.38086,0.30762,0.31348,0.29541,0.29443,0.30811,0.29541,0.30127,0.33398,0.31934,0.3374,0.31982,0.32715,0.35693,0.35791,0.41553,0.45947,0.4375,0.43359,0.42578,0.35107,0.35107,0.33398,0.33203,0.32959,0.4043,0.3833,0.43359,0.43848,0.41602,0.42383,0.48486,0.5,0.45947,0.49609,0.51221,0.53711,0.49805,0.46582,0.49805,0.55713,0.54199,0.54004,0.50879,0.54102,0.53223,0.54102,0.48047,0.49951,0.50098,0.50879,0.5293,0.55078,0.56934,0.5918,0.56494,0.57715,0.56348,0.54492,0.52539,0.48682,0.5166,0.51074,0.58105,0.54492,0.55078,0.49023,0.45996,0.42383,0.44922,0.39209,0.41162,0.52344,0.52051,0.56396,0.5625,0.53711,0.54736,0.52051,0.50293,0.53857,0.53711,0.52051,0.51758,0.51611,0.55518,0.61328,0.60645,0.59375,0.57031,0.56494,0.55713,0.54883,0.56396,0.60791,0.61816,0.6333,0.60791,0.61816,0.62793,0.62305,0.60254,0.6167,0.60547,0.6123,0.5957,0.56543,0.59814,0.59814,0.60889,0.62109,0.6333,0.64062,0.61133,0.62402,0.56494,0.59912,0.60791,0.57617,0.53418,0.48486,0.54834,0.55957,0.47607,0.55078,0.50781,0.48291,0.54395,0.4707,0.47314,0.49805,0.396,0.46924,0.41602,0.3999,0.48047,0.50098,0.51074,0.53076,0.4502,0.42871,0.479,0.55615,0.56152,0.57715,0.54004,0.5,0.52979,0.52686,0.5249,0.51172,0.56641,0.56836,0.6001,0.62695,0.62549,0.59766,0.61035,0.58691,0.6167,0.57715,0.5625,0.55518,0.56934,0.5332,0.55273,0.58691,0.56934,0.5625,0.59814,0.60693,0.6001,0.61426,0.60693,0.58936,0.58301,0.58887,0.58887,0.58594,0.5918,0.6167,0.61133,0.57373,0.57812,0.60693,0.59473,0.61572,0.60449,0.60645,0.57715,0.58789,0.57715,0.58008,0.5752,0.60938,0.6001,0.60254,0.61572,0.57617,0.58154,0.56543,0.58594,0.62598,0.62402,0.60645,0.61035,0.60547,0.62451,0.59766,0.58936,0.62695,0.61816,0.61816,0.59473,0.5957,0.58691,0.60791,0.58887,0.52637,0.53857,0.50781,0.56055,0.5459,0.58301,0.56738,0.54834,0.59375,0.60156,0.60938,0.6123,0.59131,0.61523,0.6167,0.58301,0.62109,0.61328,0.57715,0.58252,0.53076,0.56055,0.56738,0.60449,0.58789,0.60547,0.63477,0.63086,0.64355,0.62207,0.58936,0.60156,0.63574,0.62793,0.62451,0.62207,0.60791,0.62012,0.61816,0.6123,0.59766,0.62305,0.62402,0.61035,0.5625,0.56836,0.5459,0.58105,0.5459,0.51318,0.53076,0.50098,0.51172,0.53613,0.52832,0.52686,0.55469,0.52246,0.58252,0.58398,0.59277,0.60791,0.59375,0.59766,0.58301,0.59375,0.62207,0.60938,0.58594,0.60059,0.60352,0.57129,0.57617,0.60547,0.58789,0.59375,0.55615,0.58301
0.22754,0.22705,0.22656,0.22998,0.229,0.229,0.22754,0.22607,0.22852,0.22607,0.22852,0.22803,0.23047,0.22803,0.23242,0.22949,0.22949,0.22998,0.23096,0.22656,0.229,0.24023,0.25488,0.23438,0.23145,0.23682,0.23975,0.25098,0.24609,0.25635,0.2417,0.24561,0.23975,0.23877,0.23975,0.25635,0.25146,0.2417,0.23682,0.24854,0.25391,0.24561,0.23828,0.24854,0.27197,0.28467,0.27148,0.29053,0.26514,0.30176,0.28516,0.31689,0.30469,0.2998,0.31152,0.30957,0.30811,0.34668,0.35107,0.34326,0.35986,0.32666,0.33887,0.27197,0.26123,0.26221,0.29736,0.30713,0.36963,0.34375,0.31934,0.36963,0.34912,0.3374,0.34326,0.32959,0.31689,0.33203,0.31738,0.35352,0.31006,0.35986,0.33838,0.36133,0.34717,0.36475,0.3501,0.32959,0.31836,0.32959,0.3418,0.30859,0.33398,0.3501,0.35693,0.31348,0.396,0.36865,0.37549,0.39453,0.37598,0.396,0.39209,0.40967,0.35693,0.37598,0.34521,0.43896,0.38965,0.46826,0.47412,0.47607,0.47314,0.4585,0.44775,0.43359,0.5249,0.51758,0.50391,0.4458,0.48291,0.51074,0.52979,0.57422,0.56934,0.54395,0.57227,0.49756,0.51172,0.53613,0.53613,0.521,0.50879,0.51562,0.57422,0.55176,0.53076,0.58008,0.55518,0.52051,0.55273,0.55273,0.53223,0.49756,0.55176,0.51465,0.59473,0.52686,0.5332,0.5293,0.56934,0.46973,0.51221,0.479,0.48828,0.41553,0.56396,0.57617,0.56055,0.58301,0.49072,0.53955,0.55762,0.58008,0.53076,0.49609,0.44141,0.58936,0.58789,0.57715,0.56396,0.58301,0.55957,0.49072,0.56738,0.50391,0.57715,0.60156,0.62207,0.58936,0.57715,0.57617,0.59473,0.62305,0.62012,0.58594,0.6123,0.58594,0.57129,0.58594,0.54883,0.62451,0.60059,0.60889,0.59912,0.61719,0.58008,0.54834,0.5918,0.59766,0.55518,0.60254,0.5376,0.58594,0.60449,0.54492,0.51318,0.49219,0.51611,0.5791,0.59473,0.49805,0.50879,0.42725,0.42236,0.37305,0.49756,0.46777,0.51953,0.44434,0.49951,0.46826,0.52051,0.43164,0.54639,0.46338,0.46729,0.50684,0.54883,0.51465,0.53076,0.55371,0.56934,0.58398,0.56055,0.57812,0.57812,0.5918,0.62891,0.60059,0.63086,0.5957,0.61133,0.57422,0.60889,0.56641,0.54004,0.52637,0.5791,0.55859,0.56494,0.61572,0.61816,0.61572,0.6167,0.59668,0.58252,0.59912,0.59277,0.57129,0.5918,0.56348,0.58936,0.60547,0.61719,0.60449,0.57031,0.5498,0.5625,0.59814,0.60693,0.55615,0.58936,0.53857,0.58936,0.55176,0.57422,0.58496,0.58301,0.56494,0.61426,0.55371,0.58252,0.58594,0.54883,0.5957,0.59277,0.60938,0.59375,0.60156,0.58398,0.60938,0.58154,0.58789,0.57031,0.55518,0.59033,0.55957,0.54102,0.5752,0.59912,0.55518,0.53955,0.56836,0.57617,0.58105,0.56055,0.53613,0.51562,0.59814,0.63477,0.60889,0.64307,0.60156,0.57617,0.60693,0.5625,0.57129,0.62451,0.60791,0.60254,0.59814,0.57715,0.62012,0.62549,0.62695,0.5918,0.61328,0.61914,0.63965,0.62109,0.60156,0.60693,0.62988,0.59131,0.60938,0.63867,0.59766,0.58691,0.62598,0.60059,0.59375,0.5918,0.58887,0.61328,0.60938,0.58496,0.55469,0.56543,0.56152,0.50537,0.57617,0.53955,0.54395,0.56738,0.53516,0.55859,0.52832,0.53076,0.56934,0.6167,0.61914,0.58008,0.60645,0.58398,0.60352,0.61133,0.62012,0.62793,0.57275,0.61719,0.60352,0.56494,0.60693,0.59033,0.59912,0.6123,0.61133,0.59277
0.22705,0.22607,0.22754,0.23047,0.229,0.22705,0.22705,0.22803,0.22754,0.22754,0.22705,0.22852,0.23047,0.22852,0.22949,0.22754,0.22852,0.22803,0.23584,0.22705,0.22754,0.2334,0.24707,0.23584,0.23926,0.24561,0.24365,0.24658,0.2627,0.25488,0.23486,0.24756,0.24561,0.25635,0.26074,0.24854,0.25342,0.24707,0.24072,0.23389,0.24219,0.24414,0.24951,0.24463,0.26025,0.25,0.27734,0.28418,0.27002,0.26318,0.27393,0.29443,0.28662,0.33398,0.31934,0.28662,0.30078,0.33887,0.34912,0.35107,0.35596,0.35352,0.28955,0.28076,0.28711,0.31836,0.30273,0.35547,0.35059,0.33887,0.32617,0.37256,0.38574,0.3335,0.32178,0.34668,0.35547,0.34033,0.36865,0.34717,0.37012,0.35547,0.32129,0.32275,0.33887,0.36084,0.3374,0.30811,0.30371,0.30762,0.35986,0.38037,0.32959,0.35205,0.31641,0.32666,0.37402,0.37695,0.42627,0.38965,0.39258,0.35693,0.3999,0.44531,0.40039,0.45508,0.44434,0.50781,0.47607,0.44873,0.50586,0.52051,0.50586,0.5293,0.48926,0.49756,0.50342,0.46338,0.50342,0.51758,0.48926,0.55371,0.5625,0.5498,0.56494,0.56396,0.55859,0.55518,0.55762,0.56494,0.58008,0.56543,0.56396,0.55371,0.54883,0.51367,0.55176,0.56055,0.55518,0.50684,0.52979,0.48584,0.52246,0.50781,0.52051,0.57812,0.58398,0.62402,0.58887,0.5498,0.55713,0.53418,0.51807,0.44287,0.45605,0.54883,0.52686,0.55078,0.58887,0.53955,0.53125,0.58594,0.58496,0.57617,0.54297,0.5166,0.48926,0.52246,0.61328,0.60156,0.49854,0.46582,0.5293,0.51807,0.49414,0.56836,0.54199,0.54834,0.60938,0.59033,0.54736,0.58789,0.61719,0.62891,0.62598,0.57373,0.58154,0.58936,0.59814,0.56348,0.54883,0.59277,0.62207,0.60791,0.6001,0.61035,0.60254,0.58887,0.57031,0.52246,0.53516,0.55859,0.57715,0.55078,0.57812,0.56543,0.5332,0.53076,0.54492,0.58008,0.56494,0.52344,0.49805,0.52979,0.44678,0.49219,0.4624,0.40137,0.4458,0.54004,0.5293,0.5332,0.47656,0.5293,0.52197,0.51465,0.45264,0.43994,0.50537,0.52734,0.50293,0.50195,0.55273,0.58105,0.56738,0.6001,0.60938,0.57812,0.58154,0.62549,0.61572,0.58252,0.56152,0.58936,0.59473,0.6001,0.55078,0.55762,0.58252,0.59033,0.6167,0.59766,0.60645,0.61133,0.61133,0.58398,0.60254,0.59033,0.59912,0.59277,0.5791,0.6001,0.57275,0.56348,0.59814,0.57812,0.58008,0.5625,0.56494,0.55078,0.58301,0.53418,0.54883,0.57715,0.57275,0.57715,0.57422,0.59277,0.57812,0.54395,0.55713,0.53516,0.55615,0.5625,0.58105,0.61133,0.59814,0.56934,0.5752,0.58398,0.58154,0.6001,0.5625,0.56641,0.5293,0.58154,0.59668,0.55078,0.54883,0.56641,0.5791,0.59814,0.56641,0.59375,0.61133,0.60059,0.5498,0.57129,0.55371,0.60693,0.62793,0.61719,0.63867,0.62988,0.59766,0.54834,0.5625,0.58887,0.59473,0.56396,0.58594,0.61572,0.63281,0.63477,0.60156,0.60938,0.61133,0.61914,0.61328,0.60254,0.63086,0.63281,0.63965,0.61426,0.60449,0.63574,0.62793,0.61328,0.59277,0.61133,0.62207,0.60059,0.58398,0.58887,0.61816,0.62891,0.59814,0.56641,0.56543,0.59375,0.5625,0.54199,0.55762,0.54736,0.50293,0.54883,0.5293,0.54102,0.52197,0.5332,0.60645,0.56934,0.58154,0.5957,0.53125,0.55273,0.59912,0.58252,0.6001,0.61572,0.6001,0.61133,0.56836,0.55469,0.59131,0.59668,0.58398,0.59277,0.59131
0.22705,0.22754,0.22656,0.22656,0.23047,0.22949,0.22607,0.22852,0.23047,0.22803,0.22803,0.22754,0.22754,0.22803,0.23047,0.23779,0.23047,0.23926,0.23145,0.2373,0.22803,0.23047,0.24707,0.24463,0.24219,0.23779,0.24561,0.23926,0.25342,0.25195,0.23779,0.25049,0.25391,0.25635,0.25,0.25195,0.26904,0.25049,0.25439,0.25977,0.23975,0.24121,0.23975,0.24121,0.26221,0.27148,0.2793,0.25586,0.25049,0.25586,0.2959,0.29102,0.27246,0.29932,0.30518,0.33594,0.29492,0.32227,0.3291,0.34424,0.33398,0.33789,0.28564,0.31738,0.3374,0.32422,0.32324,0.32959,0.31934,0.35693,0.35742,0.30762,0.32715,0.38965,0.37158,0.33105,0.30908,0.33594,0.38135,0.35889,0.31543,0.34717,0.3208,0.34521,0.35693,0.35986,0.31348,0.35791,0.34082,0.40381,0.34229,0.35449,0.36279,0.33398,0.35449,0.37109,0.33447,0.37061,0.36475,0.36865,0.35791,0.36133,0.375,0.33691,0.45605,0.38965,0.51318,0.44189,0.44238,0.52734,0.52246,0.52734,0.50391,0.49805,0.49805,0.49561,0.44873,0.53076,0.48193,0.51953,0.5,0.57275,0.55078,0.49463,0.54492,0.53076,0.54004,0.51221,0.59766,0.54883,0.55762,0.58105,0.59814,0.57227,0.59131,0.58936,0.52197,0.48047,0.56641,0.51367,0.60938,0.51562,0.50537,0.47656,0.479,0.479,0.47803,0.53955,0.56055,0.5332,0.51758,0.48535,0.49414,0.42041,0.49414,0.45459,0.58008,0.59668,0.60693,0.57812,0.48486,0.48926,0.55713,0.51807,0.5,0.55713,0.52344,0.57373,0.60889,0.58936,0.51221,0.5498,0.51953,0.50684,0.44434,0.52344,0.52051,0.56738,0.62012,0.59375,0.57275,0.5625,0.60156,0.62891,0.61914,0.62207,0.60449,0.52979,0.58301,0.55371,0.58496,0.58398,0.56055,0.58789,0.58496,0.57617,0.54883,0.60352,0.55078,0.56641,0.47119,0.51367,0.59277,0.59473,0.51465,0.55957,0.50684,0.53076,0.48145,0.54102,0.50781,0.50293,0.49316,0.52734,0.46094,0.4585,0.50781,0.51074,0.47607,0.46338,0.48486,0.48145,0.48145,0.50781,0.49707,0.51465,0.51758,0.49561,0.54834,0.55078,0.47949,0.55713,0.57031,0.54297,0.58496,0.61035,0.62549,0.58789,0.59033,0.55713,0.55762,0.55859,0.60352,0.57812,0.61914,0.60059,0.58008,0.56738,0.58105,0.57129,0.61523,0.58252,0.60693,0.58105,0.60547,0.58691,0.6167,0.6167,0.61523,0.6123,0.58398,0.59912,0.58789,0.55713,0.59814,0.60449,0.56836,0.59912,0.54736,0.58936,0.59912,0.52686,0.52637,0.51953,0.55518,0.58594,0.56055,0.59814,0.56738,0.56348,0.56641,0.5459,0.53857,0.51611,0.56934,0.55371,0.53955,0.56641,0.55518,0.55078,0.56738,0.54834,0.57422,0.49805,0.56055,0.56348,0.55615,0.53613,0.58594,0.59473,0.59814,0.59473,0.60352,0.60547,0.63574,0.58691,0.53076,0.55957,0.55762,0.61426,0.61523,0.62012,0.64355,0.60156,0.62598,0.60938,0.58398,0.62451,0.61816,0.62207,0.61572,0.62695,0.61816,0.62695,0.62988,0.6333,0.64209,0.61426,0.6333,0.62891,0.63184,0.63574,0.64941,0.61035,0.60059,0.61572,0.58887,0.59912,0.56055,0.62012,0.61914,0.57715,0.58691,0.60938,0.59668,0.5752,0.60449,0.53711,0.51318,0.50537,0.56152,0.51074,0.5376,0.58105,0.46973,0.55518,0.55176,0.55518,0.55078,0.58008,0.61426,0.55176,0.58008,0.52441,0.5752,0.6001,0.59912,0.56934,0.60645,0.60938,0.57129,0.58594,0.53613,0.57812,0.58691,0.59814,0.55371,0.59912,0.58691
